99999.0,99999.0,99999.0,99999.0,99999.0,99999.0,99999.0,99999.0,99999.0,99999.0,99999.0,99999.0,99999.0,99999.0,99999.0,99999.0,99999.0,99999.0,99999.0,99999.0,99999.0,99999.0,99999.0,99999.0,99999.0,99999.0,99999.0,99999.0,99999.0,99999.0,99999.0,99999.0,99999.0,99999.0,99999.0,99999.0,99999.0,99999.0,99999.0,99999.0,99999.0,99999.0,99999.0,99999.0,99999.0,99999.0,99999.0,99999.0,99999.0,99999.0,99999.0,99999.0,99999.0,99999.0,99999.0,99999.0,99999.0,99999.0,99999.0,99999.0,99999.0,99999.0,99999.0,99999.0,99999.0,99999.0,99999.0,99999.0,99999.0,99999.0,99999.0,99999.0,99999.0,99999.0,99999.0,99999.0,99999.0,99999.0,99999.0,99999.0,99999.0,99999.0,99999.0,99999.0,99999.0,99999.0,99999.0,99999.0,99999.0,99999.0,99999.0,99999.0,99999.0,99999.0,99999.0,0.0,0.0,0.0,0.0,4.86081,12.003224,19.44324,22.320045,25.39525,32.140865,52.476906,83.42737,57.139313,25.39525,19.44324,268.23734,278.65335,289.2678,166.75554,72.31695,48.012897,48.012897,22.320045,16.764833,12.003224,39.68008,32.140865,32.140865,22.320045,25.39525,528.6379,558.0011,121.52024,14.284828,16.764833,19.44324,300.0806,419.12085,6.3488126,0.0992002,99999.0,99999.0,0.0,0.0,0.0,0.0,0.0,0.0,0.0,0.0,99999.0,99999.0,99999.0,99999.0,99999.0,99999.0,99999.0,99999.0,289.2678,333.70947,406.324,543.2203,699.9566,768.20636,821.47687,895.2818,933.3747,972.26117,1011.9412,1011.9412,992.002,972.26117,952.7187,933.3747,933.3747,972.26117,1011.9412,1072.9493,1093.6821,1093.6821,1135.743,1178.5975,1178.5975,1178.5975,1200.3224,1244.3673,1244.3673,1222.2456,1200.3224,1093.6821,1011.9412,972.26117,972.26117,952.7187,876.53296,839.6305,952.7187,992.002,972.26117,1011.9412,1072.9493,1093.6821,1072.9493,992.002,933.3747,821.47687,895.2818,992.002,992.002,1072.9493,1093.6821,1135.743,1135.743,1178.5975,1178.5975,1266.6874,1357.9515,1357.9515,1428.4829,1452.3901,1476.4957,1625.296,1781.2388,1834.8069,1944.3239,2028.5448,2085.684,2057.0154,1889.1686,1754.7523,1625.296,1222.2456,1222.2456,785.7648,699.9566,716.72144,158.72032,67.05933,52.476906,99999.0,99999.0,99999.0,99999.0,99999.0,99999.0,99999.0,99999.0,99999.0,99999.0,99999.0,99999.0,99999.0,99999.0,99999.0,99999.0,99999.0,99999.0,99999.0,99999.0,99999.0,99999.0,99999.0,99999.0,99999.0,99999.0,99999.0,99999.0,99999.0,99999.0,99999.0,99999.0,99999.0,99999.0,99999.0,99999.0,99999.0,99999.0,99999.0,99999.0,99999.0,99999.0,99999.0,99999.0,99999.0,99999.0,99999.0,99999.0,99999.0,99999.0,99999.0,99999.0,99999.0,99999.0,99999.0,99999.0,99999.0,99999.0,99999.0,99999.0,99999.0,99999.0,99999.0,99999.0,99999.0,99999.0,99999.0,99999.0,99999.0,99999.0,99999.0,99999.0,99999.0,99999.0,99999.0,19.44324,0.0,16.764833,9.92002,32.140865,62.000126,62.000126,57.139313,52.476906,52.476906,48.012897,83.42737,89.28018,95.33139,101.581,121.52024,268.23734,419.12085,572.98035,716.72144,857.98254,952.7187,1011.9412,1072.9493,1114.6134,1289.2058,1381.2635,1500.7998,1754.7523,1972.1991,2143.6172,2291.9214,2322.1775,2539.5251,2603.41,2700.7253,2766.5942,2833.2568,2900.713,2900.713
99999.0,99999.0,99999.0,99999.0,99999.0,99999.0,99999.0,99999.0,99999.0,99999.0,99999.0,99999.0,99999.0,99999.0,99999.0,99999.0,99999.0,99999.0,99999.0,99999.0,99999.0,99999.0,99999.0,99999.0,99999.0,99999.0,99999.0,99999.0,99999.0,99999.0,99999.0,99999.0,99999.0,99999.0,99999.0,99999.0,99999.0,99999.0,99999.0,99999.0,99999.0,99999.0,99999.0,99999.0,99999.0,99999.0,99999.0,99999.0,99999.0,99999.0,99999.0,99999.0,99999.0,99999.0,99999.0,99999.0,99999.0,99999.0,99999.0,99999.0,99999.0,99999.0,99999.0,99999.0,99999.0,99999.0,99999.0,99999.0,99999.0,99999.0,99999.0,99999.0,99999.0,99999.0,99999.0,99999.0,99999.0,0.0,0.0,99999.0,99999.0,99999.0,300.0806,166.75554,258.0197,143.24509,48.012897,25.39525,16.764833,62.000126,28.668858,52.476906,43.747288,32.140865,16.764833,0.89280176,1.5872031,22.320045,52.476906,200.8804,311.09183,268.23734,121.52024,25.39525,48.012897,143.24509,183.42117,158.72032,166.75554,238.17967,322.30145,357.12073,393.7256,472.29214,528.6379,458.70172,486.08096,543.2203,558.0011,603.534,619.10846,619.10846,572.98035,514.25385,458.70172,419.12085,432.11606,121.52024,62.000126,25.39525,28.668858,48.012897,393.7256,419.12085,101.581,2.480005,0.0,0.0,0.0,0.0,14.284828,12.003224,0.0,0.0,0.0,99999.0,99999.0,99999.0,99999.0,99999.0,99999.0,99999.0,4.86081,22.320045,3.571207,121.52024,333.70947,500.0682,619.10846,750.8463,821.47687,876.53296,876.53296,876.53296,821.47687,785.7648,785.7648,785.7648,803.5216,839.6305,857.98254,895.2818,914.229,972.26117,1032.0789,1072.9493,1114.6134,1178.5975,1200.3224,1244.3673,1289.2058,1311.9226,1289.2058,1266.6874,1244.3673,1222.2456,1200.3224,1178.5975,1157.0712,1135.743,1114.6134,1114.6134,1114.6134,1072.9493,1011.9412,895.2818,785.7648,699.9566,650.8525,650.8525,785.7648,933.3747,933.3747,933.3747,914.229,933.3747,1093.6821,1244.3673,1381.2635,1574.9023,1600.0,1500.7998,1600.0,1574.9023,1702.3746,1807.9236,1834.8069,1834.8069,1889.1686,1944.3239,1972.1991,1972.1991,1754.7523,1574.9023,1178.5975,1244.3673,1244.3673,1222.2456,228.55725,89.28018,500.0682,99999.0,99999.0,99999.0,99999.0,99999.0,99999.0,99999.0,99999.0,99999.0,99999.0,99999.0,99999.0,99999.0,99999.0,99999.0,99999.0,99999.0,99999.0,99999.0,99999.0,99999.0,99999.0,99999.0,99999.0,99999.0,99999.0,99999.0,99999.0,99999.0,99999.0,99999.0,99999.0,99999.0,99999.0,99999.0,99999.0,99999.0,99999.0,99999.0,99999.0,99999.0,99999.0,99999.0,99999.0,99999.0,99999.0,99999.0,99999.0,99999.0,99999.0,99999.0,99999.0,99999.0,99999.0,99999.0,99999.0,99999.0,99999.0,99999.0,99999.0,99999.0,99999.0,99999.0,99999.0,99999.0,99999.0,99999.0,99999.0,99999.0,99999.0,99999.0,99999.0,99999.0,99999.0,99999.0,99999.0,35.81127,35.81127,39.68008,43.747288,39.68008,25.39525,19.44324,43.747288,48.012897,52.476906,43.747288,32.140865,77.77296,311.09183,393.7256,500.0682,619.10846,821.47687,992.002,1052.4149,1114.6134,1135.743,1157.0712,1222.2456,1550.003,2571.3684,2202.3435,2322.1775,2414.136,2414.136,2476.4338,2539.5251,2571.3684,2571.3684,2603.41,2635.6501,2700.7253,2766.5942,2799.8264,2799.8264,2833.2568,2833.2568
99999.0,99999.0,99999.0,99999.0,99999.0,99999.0,99999.0,99999.0,99999.0,99999.0,99999.0,99999.0,99999.0,99999.0,99999.0,99999.0,99999.0,99999.0,99999.0,99999.0,99999.0,99999.0,99999.0,99999.0,99999.0,99999.0,99999.0,99999.0,99999.0,99999.0,99999.0,99999.0,99999.0,99999.0,99999.0,99999.0,99999.0,99999.0,99999.0,99999.0,99999.0,99999.0,99999.0,99999.0,99999.0,99999.0,99999.0,99999.0,99999.0,99999.0,99999.0,99999.0,99999.0,99999.0,99999.0,99999.0,99999.0,99999.0,99999.0,99999.0,99999.0,99999.0,99999.0,99999.0,99999.0,99999.0,99999.0,99999.0,99999.0,99999.0,99999.0,99999.0,99999.0,99999.0,99999.0,99999.0,333.70947,268.23734,543.2203,683.39014,667.02216,619.10846,588.15796,699.9566,785.7648,768.20636,750.8463,699.9566,1011.9412,1135.743,1200.3224,1200.3224,1052.4149,952.7187,1093.6821,1093.6821,1072.9493,1114.6134,1157.0712,1178.5975,1200.3224,1266.6874,1311.9226,1334.8379,1289.2058,1266.6874,1266.6874,1244.3673,1222.2456,1200.3224,1200.3224,1200.3224,1222.2456,1244.3673,1244.3673,1244.3673,1178.5975,1135.743,1178.5975,1178.5975,1157.0712,1093.6821,1093.6821,1052.4149,785.7648,619.10846,432.11606,458.70172,458.70172,419.12085,357.12073,209.90762,114.67543,895.2818,432.11606,158.72032,300.0806,192.05159,135.80507,6.3488126,57.139313,43.747288,39.68008,52.476906,158.72032,209.90762,228.55725,238.17967,248.0005,238.17967,183.42117,52.476906,43.747288,32.140865,39.68008,39.68008,128.56346,278.65335,458.70172,572.98035,603.534,634.8813,650.8525,683.39014,699.9566,716.72144,716.72144,733.6847,768.20636,768.20636,803.5216,821.47687,857.98254,876.53296,914.229,972.26117,1032.0789,1093.6821,1135.743,1200.3224,1244.3673,1244.3673,1200.3224,1178.5975,1114.6134,1052.4149,1011.9412,972.26117,914.229,857.98254,821.47687,785.7648,785.7648,768.20636,716.72144,650.8525,588.15796,588.15796,432.11606,381.32556,381.32556,381.32556,381.32556,393.7256,514.25385,619.10846,699.9566,803.5216,933.3747,1032.0789,992.002,992.002,1072.9493,1222.2456,1135.743,1114.6134,1157.0712,1266.6874,1311.9226,1428.4829,1266.6874,1032.0789,914.229,839.6305,750.8463,572.98035,101.581,52.476906,43.747288,35.81127,35.81127,35.81127,35.81127,32.140865,35.81127,99999.0,99999.0,99999.0,99999.0,99999.0,99999.0,99999.0,99999.0,99999.0,99999.0,99999.0,99999.0,99999.0,99999.0,99999.0,99999.0,99999.0,99999.0,99999.0,99999.0,99999.0,99999.0,99999.0,99999.0,99999.0,99999.0,99999.0,99999.0,99999.0,99999.0,99999.0,99999.0,99999.0,99999.0,99999.0,99999.0,99999.0,99999.0,99999.0,99999.0,99999.0,99999.0,99999.0,99999.0,99999.0,99999.0,99999.0,99999.0,99999.0,99999.0,99999.0,99999.0,99999.0,99999.0,99999.0,99999.0,99999.0,99999.0,99999.0,99999.0,99999.0,99999.0,99999.0,99999.0,99999.0,99999.0,99999.0,99999.0,99999.0,99999.0,14.284828,28.668858,19.44324,35.81127,32.140865,19.44324,28.668858,25.39525,39.68008,52.476906,57.139313,48.012897,35.81127,345.3159,458.70172,603.534,716.72144,839.6305,933.3747,1011.9412,1135.743,1266.6874,1334.8379,1500.7998,1889.1686,2114.5515,2114.5515,2143.6172,2232.0044,2352.6318,2414.136,2383.2847,2445.1858,2539.5251,2539.5251,2571.3684,2603.41,2635.6501,2635.6501,2668.0886,2700.7253,2700.7253,2700.7253,2700.7253
99999.0,99999.0,99999.0,99999.0,99999.0,99999.0,99999.0,99999.0,99999.0,99999.0,99999.0,99999.0,99999.0,99999.0,99999.0,99999.0,99999.0,99999.0,99999.0,99999.0,99999.0,99999.0,99999.0,99999.0,99999.0,99999.0,99999.0,99999.0,99999.0,99999.0,99999.0,99999.0,99999.0,99999.0,99999.0,99999.0,99999.0,99999.0,99999.0,99999.0,99999.0,99999.0,99999.0,99999.0,99999.0,99999.0,99999.0,99999.0,99999.0,99999.0,99999.0,99999.0,99999.0,99999.0,99999.0,99999.0,99999.0,99999.0,99999.0,99999.0,99999.0,99999.0,99999.0,99999.0,99999.0,99999.0,0.0,369.12393,500.0682,650.8525,543.2203,300.0806,158.72032,278.65335,572.98035,895.2818,1011.9412,1135.743,1114.6134,1289.2058,1157.0712,1157.0712,1157.0712,1157.0712,1157.0712,1178.5975,1244.3673,1311.9226,1357.9515,1452.3901,2635.6501,1650.7905,1500.7998,1500.7998,1574.9023,1625.296,1807.9236,1781.2388,1944.3239,1916.647,1944.3239,1889.1686,1781.2388,1728.4642,1728.4642,1728.4642,1728.4642,1728.4642,1728.4642,1728.4642,1702.3746,1728.4642,1676.4834,1625.296,1600.0,1600.0,1600.0,1574.9023,1550.003,1550.003,1476.4957,1452.3901,1676.4834,2202.3435,1093.6821,1072.9493,1032.0789,1011.9412,992.002,972.26117,972.26117,972.26117,972.26117,895.2818,785.7648,716.72144,634.8813,558.0011,500.0682,486.08096,486.08096,500.0682,588.15796,699.9566,733.6847,768.20636,750.8463,716.72144,683.39014,650.8525,619.10846,572.98035,514.25385,486.08096,472.29214,486.08096,543.2203,634.8813,683.39014,733.6847,733.6847,733.6847,716.72144,716.72144,699.9566,768.20636,768.20636,768.20636,821.47687,876.53296,933.3747,914.229,952.7187,992.002,1032.0789,1072.9493,1135.743,1178.5975,1200.3224,1222.2456,1266.6874,1266.6874,1244.3673,1178.5975,1114.6134,1072.9493,1011.9412,972.26117,914.229,895.2818,895.2818,914.229,839.6305,699.9566,588.15796,528.6379,432.11606,357.12073,258.0197,268.23734,278.65335,289.2678,289.2678,322.30145,357.12073,393.7256,419.12085,445.3097,528.6379,650.8525,768.20636,839.6305,839.6305,914.229,1072.9493,1266.6874,1135.743,1135.743,1011.9412,1311.9226,1052.4149,588.15796,300.0806,174.98915,95.33139,28.668858,43.747288,35.81127,35.81127,35.81127,39.68008,43.747288,43.747288,43.747288,43.747288,39.68008,39.68008,39.68008,32.140865,99999.0,99999.0,99999.0,99999.0,99999.0,99999.0,99999.0,99999.0,99999.0,99999.0,99999.0,99999.0,99999.0,99999.0,99999.0,99999.0,99999.0,99999.0,99999.0,99999.0,99999.0,99999.0,99999.0,99999.0,99999.0,99999.0,99999.0,99999.0,99999.0,99999.0,99999.0,99999.0,99999.0,99999.0,99999.0,99999.0,99999.0,99999.0,99999.0,99999.0,99999.0,99999.0,99999.0,99999.0,99999.0,99999.0,99999.0,99999.0,99999.0,99999.0,99999.0,99999.0,99999.0,99999.0,99999.0,99999.0,99999.0,99999.0,99999.0,99999.0,99999.0,99999.0,99999.0,28.668858,28.668858,22.320045,4.86081,28.668858,57.139313,143.24509,238.17967,228.55725,192.05159,209.90762,311.09183,406.324,486.08096,588.15796,667.02216,699.9566,683.39014,785.7648,933.3747,1011.9412,1135.743,1266.6874,1357.9515,1428.4829,1625.296,1781.2388,1916.647,2000.2728,2057.0154,2143.6172,2202.3435,2232.0044,2291.9214,2322.1775,2352.6318,2414.136,2445.1858,2476.4338,2507.8801,2539.5251,2539.5251,2603.41,2603.41,2603.41,2635.6501,2668.0886
99999.0,99999.0,99999.0,99999.0,99999.0,99999.0,99999.0,99999.0,99999.0,99999.0,99999.0,99999.0,99999.0,99999.0,99999.0,99999.0,99999.0,99999.0,99999.0,99999.0,99999.0,99999.0,99999.0,99999.0,99999.0,99999.0,99999.0,99999.0,99999.0,99999.0,99999.0,99999.0,99999.0,99999.0,99999.0,99999.0,99999.0,99999.0,99999.0,99999.0,99999.0,99999.0,99999.0,99999.0,99999.0,99999.0,99999.0,99999.0,99999.0,99999.0,99999.0,99999.0,99999.0,99999.0,99999.0,99999.0,99999.0,22.320045,289.2678,135.80507,150.8835,32.140865,0.0,238.17967,500.0682,857.98254,972.26117,933.3747,1093.6821,1200.3224,1404.774,1357.9515,1200.3224,1178.5975,1266.6874,1311.9226,1476.4957,1574.9023,1650.7905,1754.7523,1807.9236,1781.2388,1889.1686,2000.2728,2028.5448,2028.5448,2057.0154,2085.684,2057.0154,2057.0154,2085.684,2057.0154,2057.0154,2028.5448,2057.0154,2085.684,2114.5515,2172.881,2232.0044,2232.0044,2261.8638,2291.9214,2322.1775,2322.1775,2291.9214,2322.1775,2322.1775,2261.8638,2172.881,2085.684,2028.5448,1972.1991,1916.647,1889.1686,1861.8885,1807.9236,1702.3746,1650.7905,1600.0,1550.003,1525.3022,1500.7998,1476.4957,1428.4829,1381.2635,1289.2058,1222.2456,1200.3224,1222.2456,1311.9226,2733.5605,2322.1775,1222.2456,1093.6821,1072.9493,1052.4149,1011.9412,992.002,972.26117,972.26117,992.002,952.7187,972.26117,952.7187,992.002,1011.9412,1011.9412,1011.9412,1032.0789,1052.4149,1072.9493,1093.6821,1114.6134,1093.6821,1052.4149,992.002,1011.9412,1011.9412,972.26117,914.229,914.229,952.7187,952.7187,972.26117,992.002,992.002,992.002,1011.9412,1072.9493,1093.6821,1135.743,1135.743,1157.0712,1178.5975,1222.2456,1222.2456,1244.3673,1244.3673,1222.2456,1222.2456,1178.5975,1157.0712,1157.0712,1114.6134,1072.9493,1011.9412,952.7187,914.229,895.2818,857.98254,785.7648,768.20636,750.8463,699.9566,588.15796,458.70172,311.09183,192.05159,183.42117,174.98915,183.42117,174.98915,209.90762,278.65335,357.12073,406.324,432.11606,472.29214,528.6379,572.98035,634.8813,634.8813,588.15796,514.25385,406.324,311.09183,200.8804,135.80507,28.668858,48.012897,52.476906,52.476906,52.476906,52.476906,52.476906,52.476906,52.476906,52.476906,48.012897,48.012897,48.012897,48.012897,48.012897,48.012897,43.747288,39.68008,39.68008,39.68008,39.68008,39.68008,39.68008,35.81127,35.81127,99999.0,99999.0,99999.0,99999.0,99999.0,99999.0,99999.0,99999.0,99999.0,99999.0,99999.0,99999.0,99999.0,99999.0,99999.0,99999.0,99999.0,99999.0,99999.0,99999.0,99999.0,99999.0,99999.0,99999.0,99999.0,99999.0,99999.0,99999.0,99999.0,99999.0,99999.0,99999.0,99999.0,99999.0,99999.0,99999.0,99999.0,99999.0,99999.0,99999.0,99999.0,99999.0,99999.0,99999.0,99999.0,99999.0,99999.0,99999.0,99999.0,99999.0,99999.0,99999.0,99999.0,99999.0,99999.0,25.39525,183.42117,419.12085,588.15796,716.72144,821.47687,876.53296,933.3747,972.26117,1011.9412,1052.4149,1072.9493,1114.6134,1157.0712,1200.3224,1244.3673,1289.2058,1311.9226,1334.8379,1381.2635,1404.774,1428.4829,1452.3901,1476.4957,1500.7998,1550.003,1650.7905,1728.4642,1807.9236,1889.1686,1944.3239,2000.2728,2057.0154,2114.5515,2143.6172,2172.881,2202.3435,2291.9214,2322.1775,2352.6318,2383.2847,2383.2847,2414.136,2445.1858,2445.1858,2476.4338,2507.8801,2539.5251,2539.5251,2571.3684,2571.3684
99999.0,99999.0,99999.0,99999.0,99999.0,99999.0,99999.0,99999.0,99999.0,99999.0,99999.0,99999.0,99999.0,99999.0,99999.0,99999.0,99999.0,99999.0,99999.0,99999.0,99999.0,99999.0,99999.0,99999.0,99999.0,99999.0,99999.0,99999.0,99999.0,99999.0,99999.0,99999.0,99999.0,99999.0,99999.0,99999.0,99999.0,99999.0,99999.0,99999.0,99999.0,99999.0,99999.0,99999.0,99999.0,99999.0,99999.0,99999.0,99999.0,99999.0,99999.0,99999.0,99999.0,99999.0,28.668858,0.0,14.284828,95.33139,0.0,0.0,0.0,2.480005,0.0,0.0,192.05159,500.0682,699.9566,933.3747,1114.6134,1222.2456,1357.9515,1500.7998,1600.0,1650.7905,1702.3746,1781.2388,1807.9236,1834.8069,1861.8885,1861.8885,1889.1686,1916.647,1972.1991,2000.2728,2028.5448,2085.684,2114.5515,2114.5515,2114.5515,2114.5515,2085.684,2085.684,2085.684,2114.5515,2114.5515,2143.6172,2143.6172,2172.881,2172.881,2172.881,2143.6172,2114.5515,2114.5515,2352.6318,2172.881,2232.0044,2232.0044,2202.3435,2172.881,2143.6172,2114.5515,2085.684,2028.5448,1972.1991,1944.3239,1889.1686,1861.8885,1807.9236,1834.8069,3107.843,1550.003,1500.7998,1476.4957,1452.3901,1381.2635,1334.8379,1311.9226,1266.6874,1266.6874,1266.6874,1244.3673,1222.2456,1222.2456,1222.2456,1200.3224,1178.5975,1178.5975,1157.0712,1135.743,1135.743,1157.0712,1157.0712,1157.0712,1178.5975,1178.5975,1178.5975,1200.3224,1200.3224,1222.2456,1244.3673,1266.6874,1289.2058,1311.9226,1289.2058,1289.2058,1266.6874,1289.2058,1266.6874,1244.3673,1244.3673,1222.2456,1200.3224,1200.3224,1244.3673,1266.6874,1266.6874,1311.9226,1311.9226,1334.8379,1334.8379,1334.8379,1311.9226,1311.9226,1289.2058,1289.2058,1244.3673,1244.3673,1200.3224,1157.0712,1093.6821,1052.4149,1011.9412,933.3747,876.53296,895.2818,876.53296,857.98254,857.98254,839.6305,933.3747,972.26117,1011.9412,1052.4149,1114.6134,1157.0712,1244.3673,1072.9493,933.3747,619.10846,258.0197,89.28018,108.029015,101.581,95.33139,89.28018,83.42737,77.77296,72.31695,67.05933,67.05933,67.05933,52.476906,67.05933,62.000126,67.05933,62.000126,62.000126,62.000126,62.000126,62.000126,62.000126,62.000126,57.139313,57.139313,52.476906,52.476906,52.476906,48.012897,48.012897,48.012897,48.012897,48.012897,48.012897,48.012897,43.747288,43.747288,43.747288,39.68008,39.68008,39.68008,39.68008,39.68008,39.68008,39.68008,35.81127,32.140865,25.39525,22.320045,99999.0,99999.0,99999.0,99999.0,99999.0,99999.0,99999.0,99999.0,99999.0,99999.0,99999.0,99999.0,99999.0,99999.0,99999.0,99999.0,99999.0,99999.0,99999.0,99999.0,99999.0,99999.0,99999.0,99999.0,99999.0,99999.0,99999.0,99999.0,99999.0,99999.0,99999.0,99999.0,99999.0,99999.0,99999.0,99999.0,99999.0,99999.0,99999.0,99999.0,99999.0,99999.0,99999.0,99999.0,99999.0,99999.0,238.17967,619.10846,785.7648,895.2818,1011.9412,1052.4149,1072.9493,1135.743,1222.2456,1289.2058,1357.9515,1428.4829,1500.7998,1550.003,1574.9023,1574.9023,1600.0,1600.0,1600.0,1625.296,1625.296,1650.7905,1650.7905,1676.4834,1676.4834,1702.3746,1728.4642,1754.7523,1807.9236,1834.8069,1861.8885,1889.1686,1916.647,1972.1991,2028.5448,2085.684,2114.5515,2143.6172,2172.881,2202.3435,2232.0044,2261.8638,2261.8638,2291.9214,2291.9214,2322.1775,2322.1775,2352.6318,2383.2847,2383.2847,2414.136,2445.1858,2476.4338,2476.4338,2507.8801
99999.0,99999.0,99999.0,99999.0,99999.0,99999.0,99999.0,99999.0,99999.0,99999.0,99999.0,99999.0,99999.0,99999.0,99999.0,99999.0,99999.0,99999.0,99999.0,99999.0,99999.0,99999.0,99999.0,99999.0,99999.0,99999.0,99999.0,99999.0,99999.0,99999.0,99999.0,99999.0,99999.0,99999.0,99999.0,99999.0,99999.0,99999.0,0.0,32.140865,72.31695,150.8835,369.12393,458.70172,514.25385,588.15796,393.7256,289.2678,0.0,1.5872031,4.86081,0.0,114.67543,108.029015,8.035216,8.035216,8.035216,192.05159,322.30145,0.89280176,28.668858,2.480005,0.0,135.80507,209.90762,406.324,603.534,667.02216,821.47687,914.229,1114.6134,1135.743,1200.3224,1334.8379,1357.9515,1404.774,1404.774,1500.7998,1500.7998,1550.003,1600.0,1650.7905,1676.4834,1728.4642,1807.9236,1834.8069,1889.1686,1916.647,1916.647,1916.647,1916.647,1916.647,1916.647,1916.647,1944.3239,1944.3239,1944.3239,1972.1991,2028.5448,2028.5448,1972.1991,1916.647,1889.1686,1889.1686,1944.3239,2000.2728,2028.5448,2000.2728,2000.2728,2028.5448,1972.1991,1972.1991,1944.3239,1916.647,1889.1686,1861.8885,1807.9236,1781.2388,1728.4642,1676.4834,1625.296,1600.0,1550.003,1500.7998,1476.4957,1428.4829,1428.4829,1381.2635,1357.9515,1311.9226,1289.2058,1266.6874,1266.6874,1244.3673,1222.2456,1222.2456,1222.2456,1244.3673,1266.6874,1244.3673,1266.6874,1244.3673,1244.3673,1244.3673,1266.6874,1289.2058,1289.2058,1289.2058,1289.2058,1311.9226,1334.8379,1334.8379,1357.9515,1357.9515,1381.2635,1404.774,1428.4829,1452.3901,1452.3901,1476.4957,1476.4957,1476.4957,1476.4957,1476.4957,1476.4957,1476.4957,1476.4957,1452.3901,1452.3901,1428.4829,1428.4829,1404.774,1404.774,1381.2635,1381.2635,1357.9515,1334.8379,1357.9515,1404.774,1381.2635,1334.8379,1289.2058,1222.2456,933.3747,821.47687,785.7648,733.6847,667.02216,667.02216,683.39014,619.10846,445.3097,558.0011,733.6847,895.2818,933.3747,914.229,857.98254,803.5216,716.72144,528.6379,300.0806,89.28018,83.42737,83.42737,83.42737,83.42737,83.42737,77.77296,77.77296,72.31695,72.31695,67.05933,67.05933,67.05933,67.05933,62.000126,62.000126,62.000126,62.000126,57.139313,52.476906,48.012897,48.012897,48.012897,48.012897,48.012897,48.012897,48.012897,43.747288,43.747288,43.747288,43.747288,43.747288,43.747288,39.68008,43.747288,39.68008,39.68008,39.68008,35.81127,39.68008,35.81127,35.81127,35.81127,35.81127,35.81127,35.81127,32.140865,32.140865,32.140865,32.140865,32.140865,32.140865,28.668858,28.668858,99999.0,99999.0,99999.0,99999.0,99999.0,99999.0,99999.0,99999.0,99999.0,99999.0,99999.0,99999.0,99999.0,99999.0,99999.0,99999.0,99999.0,99999.0,99999.0,99999.0,99999.0,99999.0,99999.0,99999.0,99999.0,99999.0,99999.0,99999.0,99999.0,99999.0,99999.0,99999.0,62.000126,406.324,486.08096,333.70947,683.39014,933.3747,1032.0789,1052.4149,1114.6134,1222.2456,1266.6874,1289.2058,1334.8379,1381.2635,1404.774,1428.4829,1428.4829,1452.3901,1452.3901,1452.3901,1452.3901,1452.3901,1476.4957,1500.7998,1550.003,1574.9023,1625.296,1676.4834,1702.3746,1728.4642,1754.7523,1781.2388,1807.9236,1807.9236,1834.8069,1834.8069,1861.8885,1861.8885,1889.1686,1916.647,1972.1991,2000.2728,2028.5448,2057.0154,2114.5515,2114.5515,2114.5515,2114.5515,2143.6172,2143.6172,2172.881,2202.3435,2232.0044,2261.8638,2261.8638,2291.9214,2322.1775,2352.6318,2383.2847,2414.136,2445.1858
99999.0,99999.0,99999.0,99999.0,99999.0,99999.0,99999.0,99999.0,99999.0,99999.0,99999.0,99999.0,99999.0,99999.0,99999.0,99999.0,99999.0,99999.0,99999.0,99999.0,99999.0,99999.0,99999.0,99999.0,99999.0,99999.0,99999.0,99999.0,99999.0,99999.0,99999.0,99999.0,99999.0,99999.0,0.0,0.0,0.0,0.0,8.035216,166.75554,486.08096,588.15796,683.39014,733.6847,733.6847,733.6847,785.7648,750.8463,699.9566,683.39014,603.534,572.98035,500.0682,357.12073,89.28018,43.747288,150.8835,135.80507,209.90762,406.324,486.08096,572.98035,699.9566,603.534,300.0806,500.0682,650.8525,768.20636,895.2818,1032.0789,1072.9493,1072.9493,1072.9493,1114.6134,1114.6134,1157.0712,1178.5975,1200.3224,1311.9226,1334.8379,1381.2635,1404.774,1452.3901,1476.4957,1500.7998,1600.0,1625.296,1650.7905,1650.7905,1650.7905,1676.4834,1702.3746,1702.3746,1728.4642,1754.7523,1781.2388,1754.7523,1781.2388,1781.2388,1781.2388,1781.2388,1781.2388,1781.2388,1807.9236,1807.9236,1807.9236,1834.8069,1807.9236,1807.9236,1834.8069,1807.9236,1807.9236,1807.9236,1781.2388,1781.2388,1781.2388,1754.7523,1754.7523,1728.4642,1702.3746,1676.4834,1676.4834,1650.7905,1625.296,1600.0,1574.9023,1550.003,1500.7998,1476.4957,1452.3901,1452.3901,1404.774,1404.774,1381.2635,1381.2635,1357.9515,1357.9515,1357.9515,1334.8379,1334.8379,1357.9515,1357.9515,1334.8379,1357.9515,1357.9515,1334.8379,1334.8379,1357.9515,1357.9515,1334.8379,1381.2635,1404.774,1428.4829,1428.4829,1452.3901,1452.3901,1500.7998,1500.7998,1525.3022,1550.003,1550.003,1574.9023,1525.3022,1525.3022,1550.003,1550.003,1550.003,1550.003,1525.3022,1525.3022,1525.3022,1525.3022,1525.3022,1550.003,1550.003,1550.003,1550.003,1574.9023,1600.0,1600.0,1550.003,1834.8069,1944.3239,1311.9226,558.0011,419.12085,381.32556,486.08096,514.25385,486.08096,369.12393,174.98915,121.52024,135.80507,114.67543,143.24509,238.17967,289.2678,311.09183,311.09183,345.3159,381.32556,393.7256,472.29214,486.08096,381.32556,289.2678,248.0005,174.98915,39.68008,57.139313,57.139313,57.139313,57.139313,57.139313,57.139313,57.139313,62.000126,57.139313,57.139313,57.139313,52.476906,48.012897,48.012897,48.012897,48.012897,43.747288,43.747288,39.68008,39.68008,39.68008,39.68008,39.68008,39.68008,39.68008,39.68008,39.68008,39.68008,39.68008,35.81127,39.68008,35.81127,35.81127,39.68008,39.68008,35.81127,35.81127,39.68008,39.68008,39.68008,39.68008,39.68008,39.68008,39.68008,39.68008,35.81127,39.68008,12.003224,1.5872031,8.035216,22.320045,99999.0,99999.0,99999.0,99999.0,99999.0,99999.0,99999.0,99999.0,99999.0,0.0,0.0,0.0,99999.0,99999.0,99999.0,99999.0,99999.0,99999.0,99999.0,99999.0,99999.0,99999.0,99999.0,99999.0,62.000126,486.08096,716.72144,839.6305,933.3747,992.002,1011.9412,1072.9493,1093.6821,1114.6134,1093.6821,1072.9493,1052.4149,1052.4149,1072.9493,1093.6821,1114.6134,1135.743,1157.0712,1178.5975,1200.3224,1222.2456,1244.3673,1266.6874,1289.2058,1311.9226,1357.9515,1381.2635,1428.4829,1476.4957,1525.3022,1600.0,1650.7905,1702.3746,1728.4642,1754.7523,1754.7523,1781.2388,1781.2388,1807.9236,1807.9236,1834.8069,1861.8885,1861.8885,1889.1686,1916.647,1944.3239,1944.3239,1972.1991,2000.2728,2000.2728,2028.5448,2057.0154,2085.684,2085.684,2143.6172,2172.881,2202.3435,2232.0044,2261.8638,2261.8638,2291.9214,2352.6318,2383.2847
99999.0,99999.0,99999.0,99999.0,99999.0,99999.0,99999.0,99999.0,99999.0,99999.0,99999.0,99999.0,99999.0,99999.0,99999.0,99999.0,99999.0,99999.0,99999.0,99999.0,99999.0,99999.0,99999.0,99999.0,99999.0,99999.0,99999.0,0.0,0.0,0.0,0.0,0.0,0.0,0.0,0.0,0.0,0.0,0.0,0.0,0.89280176,12.003224,19.44324,14.284828,14.284828,22.320045,48.012897,77.77296,289.2678,381.32556,486.08096,588.15796,683.39014,733.6847,750.8463,785.7648,839.6305,876.53296,876.53296,895.2818,895.2818,895.2818,895.2818,895.2818,876.53296,839.6305,821.47687,839.6305,914.229,933.3747,876.53296,876.53296,895.2818,895.2818,914.229,895.2818,895.2818,914.229,972.26117,1032.0789,1093.6821,1114.6134,1178.5975,1222.2456,1244.3673,1244.3673,1289.2058,1311.9226,1357.9515,1404.774,1428.4829,1428.4829,1452.3901,1476.4957,1500.7998,1550.003,1550.003,1574.9023,1600.0,1600.0,1600.0,1625.296,1625.296,1625.296,1650.7905,1650.7905,1650.7905,1650.7905,1650.7905,1650.7905,1650.7905,1650.7905,1650.7905,1650.7905,1650.7905,1650.7905,1676.4834,1676.4834,1702.3746,1728.4642,1728.4642,1728.4642,1728.4642,1702.3746,1702.3746,1676.4834,1650.7905,1625.296,1600.0,1574.9023,1574.9023,1550.003,1550.003,1525.3022,1500.7998,1476.4957,1476.4957,1476.4957,1476.4957,1476.4957,1525.3022,1525.3022,1525.3022,1525.3022,1550.003,1574.9023,1600.0,1600.0,1600.0,1574.9023,1600.0,1600.0,1600.0,1600.0,1625.296,1625.296,1650.7905,1650.7905,1676.4834,1676.4834,1676.4834,1676.4834,1676.4834,1650.7905,1625.296,1625.296,1625.296,1625.296,1625.296,1625.296,1625.296,1650.7905,1650.7905,1650.7905,1702.3746,1728.4642,1754.7523,1781.2388,1834.8069,2000.2728,2232.0044,2571.3684,2539.5251,2352.6318,1944.3239,1244.3673,603.534,228.55725,83.42737,77.77296,166.75554,486.08096,588.15796,667.02216,634.8813,528.6379,406.324,228.55725,150.8835,114.67543,114.67543,108.029015,108.029015,108.029015,108.029015,101.581,89.28018,83.42737,83.42737,83.42737,77.77296,72.31695,72.31695,72.31695,72.31695,67.05933,67.05933,62.000126,62.000126,62.000126,57.139313,57.139313,48.012897,39.68008,35.81127,39.68008,39.68008,39.68008,35.81127,35.81127,35.81127,39.68008,39.68008,39.68008,39.68008,39.68008,35.81127,39.68008,39.68008,39.68008,39.68008,39.68008,39.68008,39.68008,39.68008,39.68008,39.68008,43.747288,43.747288,43.747288,43.747288,43.747288,48.012897,48.012897,43.747288,39.68008,25.39525,135.80507,278.65335,393.7256,500.0682,572.98035,650.8525,667.02216,634.8813,572.98035,445.3097,289.2678,22.320045,35.81127,48.012897,48.012897,48.012897,48.012897,52.476906,57.139313,43.747288,32.140865,25.39525,22.320045,16.764833,3.571207,2.480005,9.92002,311.09183,699.9566,876.53296,1052.4149,1093.6821,1072.9493,1011.9412,952.7187,914.229,857.98254,821.47687,803.5216,768.20636,768.20636,768.20636,785.7648,785.7648,785.7648,803.5216,839.6305,876.53296,895.2818,952.7187,992.002,1032.0789,1072.9493,1114.6134,1135.743,1222.2456,1334.8379,1404.774,1476.4957,1500.7998,1525.3022,1550.003,1574.9023,1574.9023,1600.0,1600.0,1625.296,1650.7905,1676.4834,1702.3746,1728.4642,1728.4642,1781.2388,1807.9236,1834.8069,1861.8885,1889.1686,1944.3239,1944.3239,1972.1991,2000.2728,2057.0154,2085.684,2143.6172,2143.6172,2202.3435,2202.3435,2232.0044,2261.8638,2261.8638,2291.9214,2322.1775,2352.6318
0.0,0.0,0.0,0.0,0.0,0.0,0.0,0.0,0.0,0.0,0.0,0.0,0.0,0.0,0.0,0.0,0.0,0.0,0.0,0.0,0.0,0.0,0.0,0.0,0.0,0.0,0.0,0.0,8.035216,35.81127,6.3488126,0.0,4.86081,6.3488126,8.035216,6.3488126,8.035216,8.035216,8.035216,8.035216,8.035216,0.0,0.0,0.0,4.86081,166.75554,369.12393,393.7256,311.09183,278.65335,311.09183,369.12393,406.324,458.70172,472.29214,500.0682,543.2203,572.98035,588.15796,603.534,619.10846,650.8525,683.39014,699.9566,716.72144,733.6847,733.6847,716.72144,699.9566,699.9566,699.9566,667.02216,650.8525,667.02216,667.02216,667.02216,716.72144,733.6847,750.8463,803.5216,821.47687,876.53296,895.2818,972.26117,992.002,1011.9412,1093.6821,1093.6821,1178.5975,1178.5975,1200.3224,1244.3673,1266.6874,1266.6874,1334.8379,1357.9515,1381.2635,1428.4829,1476.4957,1500.7998,1500.7998,1500.7998,1525.3022,1525.3022,1525.3022,1525.3022,1525.3022,1525.3022,1525.3022,1525.3022,1525.3022,1525.3022,1550.003,1574.9023,1574.9023,1574.9023,1625.296,1625.296,1650.7905,1676.4834,1702.3746,1702.3746,1728.4642,1754.7523,1781.2388,1781.2388,1781.2388,1781.2388,1781.2388,1754.7523,1728.4642,1702.3746,1650.7905,1650.7905,1650.7905,1650.7905,1702.3746,1702.3746,1702.3746,1676.4834,1650.7905,1650.7905,1676.4834,1676.4834,1702.3746,1728.4642,1754.7523,1754.7523,1781.2388,1781.2388,1754.7523,1781.2388,1781.2388,1781.2388,1807.9236,1807.9236,1807.9236,1834.8069,1807.9236,1807.9236,1807.9236,1781.2388,1781.2388,1781.2388,1754.7523,1728.4642,1728.4642,1754.7523,1754.7523,1754.7523,1754.7523,1781.2388,1807.9236,1834.8069,1889.1686,1916.647,1944.3239,1916.647,2085.684,2232.0044,2172.881,2114.5515,2291.9214,1178.5975,1289.2058,2028.5448,992.002,311.09183,150.8835,166.75554,166.75554,158.72032,166.75554,174.98915,238.17967,248.0005,238.17967,219.13324,121.52024,77.77296,89.28018,95.33139,101.581,108.029015,77.77296,89.28018,83.42737,89.28018,89.28018,89.28018,83.42737,77.77296,77.77296,72.31695,62.000126,57.139313,174.98915,289.2678,228.55725,28.668858,39.68008,39.68008,43.747288,39.68008,39.68008,39.68008,43.747288,39.68008,39.68008,39.68008,43.747288,43.747288,43.747288,43.747288,43.747288,39.68008,39.68008,39.68008,43.747288,43.747288,43.747288,43.747288,48.012897,48.012897,48.012897,48.012897,43.747288,48.012897,48.012897,48.012897,48.012897,48.012897,43.747288,48.012897,43.747288,174.98915,289.2678,381.32556,472.29214,514.25385,528.6379,458.70172,357.12073,258.0197,89.28018,89.28018,77.77296,62.000126,57.139313,62.000126,67.05933,67.05933,72.31695,72.31695,67.05933,72.31695,72.31695,67.05933,67.05933,72.31695,67.05933,67.05933,114.67543,228.55725,369.12393,458.70172,472.29214,514.25385,558.0011,603.534,588.15796,543.2203,500.0682,458.70172,393.7256,381.32556,381.32556,393.7256,458.70172,500.0682,543.2203,667.02216,992.002,1052.4149,1072.9493,1072.9493,1093.6821,1135.743,1157.0712,1200.3224,1222.2456,1244.3673,1289.2058,1311.9226,1334.8379,1357.9515,1381.2635,1404.774,1428.4829,1428.4829,1452.3901,1452.3901,1476.4957,1476.4957,1500.7998,1525.3022,1550.003,1600.0,1650.7905,1676.4834,1728.4642,1781.2388,1807.9236,1834.8069,1889.1686,1916.647,1944.3239,1972.1991,1972.1991,2057.0154,2114.5515,2143.6172,2172.881,2232.0044,2232.0044,2261.8638,2261.8638,2291.9214,2322.1775
0.0,0.0,0.0,0.0,0.0,0.0,0.0,0.0,0.0,0.0,0.0,0.0,0.0,0.0,0.3968008,1.5872031,1.5872031,2.480005,2.480005,3.571207,2.480005,2.480005,2.480005,0.89280176,0.0,0.0,0.0,62.000126,174.98915,333.70947,393.7256,300.0806,135.80507,35.81127,4.86081,8.035216,16.764833,16.764833,19.44324,19.44324,19.44324,19.44324,19.44324,22.320045,25.39525,25.39525,25.39525,25.39525,28.668858,32.140865,35.81127,48.012897,128.56346,150.8835,174.98915,278.65335,345.3159,419.12085,458.70172,500.0682,558.0011,603.534,634.8813,667.02216,667.02216,650.8525,634.8813,619.10846,588.15796,558.0011,500.0682,458.70172,486.08096,486.08096,486.08096,486.08096,486.08096,458.70172,445.3097,486.08096,543.2203,588.15796,619.10846,650.8525,716.72144,785.7648,857.98254,914.229,952.7187,992.002,1032.0789,1072.9493,1072.9493,1157.0712,1200.3224,1222.2456,1266.6874,1311.9226,1311.9226,1381.2635,1381.2635,1428.4829,1428.4829,1428.4829,1452.3901,1452.3901,1476.4957,1476.4957,1476.4957,1476.4957,1476.4957,1500.7998,1500.7998,1525.3022,1525.3022,1550.003,1574.9023,1600.0,1625.296,1650.7905,1650.7905,1676.4834,1702.3746,1702.3746,1728.4642,1754.7523,1754.7523,1781.2388,1781.2388,1781.2388,1781.2388,1781.2388,1781.2388,1781.2388,1807.9236,1807.9236,1807.9236,1807.9236,1834.8069,1834.8069,1834.8069,1861.8885,1861.8885,1889.1686,1889.1686,1889.1686,1889.1686,1889.1686,1889.1686,1916.647,1916.647,1916.647,1944.3239,1944.3239,1944.3239,1944.3239,1944.3239,1916.647,1916.647,1889.1686,1889.1686,1889.1686,1889.1686,1889.1686,1889.1686,1889.1686,1889.1686,1889.1686,1916.647,1972.1991,1972.1991,1972.1991,1972.1991,2000.2728,2028.5448,2028.5448,2000.2728,1972.1991,2000.2728,1972.1991,1861.8885,1834.8069,1889.1686,1428.4829,1135.743,972.26117,785.7648,803.5216,543.2203,228.55725,238.17967,543.2203,114.67543,121.52024,135.80507,158.72032,143.24509,128.56346,128.56346,128.56346,108.029015,77.77296,77.77296,83.42737,83.42737,89.28018,89.28018,89.28018,89.28018,89.28018,89.28018,72.31695,219.13324,289.2678,248.0005,150.8835,57.139313,67.05933,62.000126,62.000126,43.747288,43.747288,48.012897,48.012897,43.747288,43.747288,43.747288,43.747288,43.747288,48.012897,48.012897,48.012897,48.012897,48.012897,52.476906,48.012897,48.012897,48.012897,52.476906,52.476906,52.476906,52.476906,52.476906,52.476906,52.476906,52.476906,52.476906,48.012897,48.012897,43.747288,43.747288,48.012897,52.476906,48.012897,83.42737,209.90762,322.30145,419.12085,500.0682,572.98035,650.8525,716.72144,768.20636,768.20636,716.72144,634.8813,458.70172,300.0806,95.33139,67.05933,72.31695,77.77296,77.77296,77.77296,77.77296,77.77296,83.42737,77.77296,77.77296,72.31695,77.77296,83.42737,95.33139,101.581,95.33139,101.581,101.581,95.33139,108.029015,108.029015,114.67543,114.67543,121.52024,135.80507,192.05159,228.55725,289.2678,750.8463,839.6305,972.26117,972.26117,972.26117,952.7187,933.3747,933.3747,933.3747,914.229,914.229,895.2818,876.53296,876.53296,876.53296,857.98254,876.53296,895.2818,952.7187,992.002,1032.0789,1093.6821,1200.3224,1266.6874,1334.8379,1357.9515,1404.774,1428.4829,1452.3901,1476.4957,1500.7998,1600.0,1625.296,1676.4834,1728.4642,1781.2388,1781.2388,1807.9236,1861.8885,1916.647,1972.1991,2028.5448,2085.684,2172.881,2172.881,2172.881,2172.881,2202.3435,2202.3435,2232.0044,2261.8638,2291.9214
0.0,0.0,0.0,0.0,0.0,1.5872031,0.89280176,0.0,0.0,0.0,0.3968008,1.5872031,2.480005,2.480005,4.86081,4.86081,4.86081,4.86081,4.86081,8.035216,9.92002,9.92002,9.92002,9.92002,12.003224,12.003224,9.92002,8.035216,6.3488126,6.3488126,0.0,4.86081,39.68008,72.31695,83.42737,62.000126,14.284828,8.035216,12.003224,14.284828,19.44324,19.44324,16.764833,19.44324,25.39525,25.39525,28.668858,32.140865,35.81127,35.81127,35.81127,35.81127,35.81127,35.81127,35.81127,32.140865,32.140865,35.81127,62.000126,114.67543,150.8835,166.75554,158.72032,83.42737,143.24509,192.05159,192.05159,238.17967,258.0197,268.23734,268.23734,300.0806,322.30145,345.3159,357.12073,381.32556,393.7256,406.324,419.12085,432.11606,445.3097,445.3097,500.0682,558.0011,588.15796,619.10846,634.8813,733.6847,821.47687,876.53296,952.7187,972.26117,1032.0789,1052.4149,1114.6134,1135.743,1157.0712,1200.3224,1244.3673,1266.6874,1266.6874,1289.2058,1289.2058,1357.9515,1357.9515,1357.9515,1381.2635,1381.2635,1404.774,1428.4829,1428.4829,1452.3901,1452.3901,1500.7998,1500.7998,1525.3022,1525.3022,1550.003,1574.9023,1600.0,1600.0,1625.296,1650.7905,1650.7905,1676.4834,1676.4834,1676.4834,1702.3746,1702.3746,1702.3746,1728.4642,1728.4642,1754.7523,1754.7523,1781.2388,1807.9236,1834.8069,1834.8069,1861.8885,1861.8885,1889.1686,1916.647,1944.3239,1944.3239,1972.1991,1972.1991,2000.2728,2000.2728,2000.2728,2000.2728,2000.2728,2000.2728,2000.2728,2028.5448,2028.5448,2000.2728,2000.2728,2000.2728,2000.2728,1972.1991,1972.1991,2000.2728,2000.2728,2000.2728,2028.5448,2057.0154,2057.0154,2085.684,2085.684,2114.5515,2143.6172,2172.881,2143.6172,2057.0154,2028.5448,1972.1991,1889.1686,1834.8069,1781.2388,1754.7523,1728.4642,1702.3746,1625.296,1625.296,1676.4834,1728.4642,1650.7905,972.26117,716.72144,876.53296,650.8525,528.6379,572.98035,322.30145,289.2678,369.12393,445.3097,472.29214,500.0682,486.08096,419.12085,278.65335,101.581,83.42737,95.33139,101.581,101.581,101.581,101.581,101.581,101.581,95.33139,89.28018,89.28018,89.28018,95.33139,95.33139,95.33139,95.33139,95.33139,101.581,95.33139,62.000126,48.012897,43.747288,48.012897,48.012897,48.012897,48.012897,43.747288,43.747288,39.68008,32.140865,35.81127,48.012897,39.68008,62.000126,67.05933,62.000126,62.000126,57.139313,57.139313,62.000126,62.000126,62.000126,62.000126,57.139313,57.139313,39.68008,39.68008,48.012897,48.012897,32.140865,95.33139,228.55725,333.70947,419.12085,514.25385,588.15796,650.8525,716.72144,785.7648,803.5216,785.7648,768.20636,699.9566,634.8813,528.6379,357.12073,77.77296,83.42737,77.77296,77.77296,77.77296,77.77296,83.42737,83.42737,83.42737,83.42737,83.42737,83.42737,89.28018,89.28018,89.28018,95.33139,95.33139,95.33139,95.33139,95.33139,95.33139,95.33139,128.56346,143.24509,150.8835,166.75554,166.75554,174.98915,289.2678,345.3159,369.12393,406.324,445.3097,458.70172,472.29214,486.08096,486.08096,486.08096,486.08096,500.0682,514.25385,558.0011,588.15796,650.8525,716.72144,785.7648,876.53296,952.7187,1011.9412,1114.6134,1200.3224,1266.6874,1289.2058,1357.9515,1404.774,1428.4829,1476.4957,1500.7998,1550.003,1625.296,1650.7905,1676.4834,1702.3746,1728.4642,1754.7523,1807.9236,1834.8069,1861.8885,1944.3239,1972.1991,2028.5448,2057.0154,2085.684,2114.5515,2143.6172,2143.6172,2143.6172,2172.881,2232.0044,2232.0044
0.89280176,2.480005,2.480005,2.480005,1.5872031,2.480005,3.571207,2.480005,1.5872031,0.89280176,0.89280176,0.0,0.89280176,2.480005,2.480005,3.571207,6.3488126,8.035216,8.035216,8.035216,9.92002,12.003224,12.003224,12.003224,14.284828,14.284828,16.764833,19.44324,19.44324,22.320045,25.39525,25.39525,25.39525,25.39525,25.39525,25.39525,25.39525,25.39525,22.320045,22.320045,25.39525,25.39525,28.668858,32.140865,32.140865,35.81127,35.81127,35.81127,35.81127,35.81127,35.81127,35.81127,35.81127,39.68008,39.68008,43.747288,67.05933,77.77296,89.28018,77.77296,72.31695,72.31695,77.77296,150.8835,150.8835,166.75554,166.75554,183.42117,192.05159,219.13324,268.23734,300.0806,357.12073,393.7256,432.11606,486.08096,514.25385,543.2203,558.0011,572.98035,558.0011,572.98035,588.15796,603.534,634.8813,650.8525,699.9566,768.20636,803.5216,821.47687,839.6305,857.98254,895.2818,933.3747,972.26117,1011.9412,1052.4149,1072.9493,1093.6821,1135.743,1178.5975,1200.3224,1222.2456,1244.3673,1244.3673,1266.6874,1289.2058,1289.2058,1311.9226,1334.8379,1357.9515,1381.2635,1381.2635,1381.2635,1404.774,1404.774,1428.4829,1452.3901,1476.4957,1500.7998,1500.7998,1500.7998,1550.003,1600.0,1600.0,1600.0,1625.296,1650.7905,1650.7905,1676.4834,1676.4834,1702.3746,1702.3746,1728.4642,1754.7523,1781.2388,1807.9236,1807.9236,1834.8069,1861.8885,1889.1686,1916.647,1916.647,1944.3239,1972.1991,2028.5448,2028.5448,2057.0154,2057.0154,2085.684,2085.684,2085.684,2085.684,2114.5515,2114.5515,2114.5515,2114.5515,2114.5515,2143.6172,2143.6172,2172.881,2172.881,2143.6172,2143.6172,2172.881,2202.3435,2202.3435,2172.881,2172.881,2114.5515,2057.0154,2028.5448,2028.5448,2000.2728,1944.3239,1916.647,1861.8885,1807.9236,1754.7523,1702.3746,1574.9023,1550.003,1476.4957,1476.4957,1452.3901,1404.774,1289.2058,1244.3673,1244.3673,1222.2456,1200.3224,952.7187,914.229,839.6305,803.5216,768.20636,683.39014,558.0011,458.70172,357.12073,238.17967,166.75554,101.581,77.77296,89.28018,101.581,108.029015,108.029015,108.029015,101.581,101.581,95.33139,95.33139,89.28018,89.28018,89.28018,95.33139,89.28018,89.28018,89.28018,89.28018,101.581,67.05933,52.476906,48.012897,48.012897,48.012897,48.012897,52.476906,52.476906,52.476906,52.476906,62.000126,108.029015,121.52024,72.31695,72.31695,72.31695,72.31695,67.05933,72.31695,72.31695,72.31695,72.31695,72.31695,67.05933,57.139313,43.747288,108.029015,143.24509,219.13324,300.0806,369.12393,406.324,445.3097,445.3097,445.3097,458.70172,514.25385,572.98035,588.15796,588.15796,572.98035,528.6379,458.70172,333.70947,200.8804,89.28018,89.28018,89.28018,89.28018,89.28018,83.42737,77.77296,83.42737,83.42737,83.42737,83.42737,83.42737,83.42737,83.42737,83.42737,83.42737,77.77296,77.77296,83.42737,89.28018,89.28018,89.28018,89.28018,89.28018,89.28018,89.28018,101.581,150.8835,248.0005,300.0806,472.29214,572.98035,699.9566,785.7648,839.6305,768.20636,821.47687,785.7648,876.53296,876.53296,914.229,876.53296,839.6305,839.6305,839.6305,895.2818,972.26117,1011.9412,1072.9493,1157.0712,1244.3673,1334.8379,1452.3901,1476.4957,1500.7998,1500.7998,1525.3022,1550.003,1600.0,1625.296,1676.4834,1702.3746,1754.7523,1781.2388,1781.2388,1834.8069,1861.8885,1889.1686,1889.1686,1944.3239,1972.1991,2000.2728,2028.5448,2057.0154,2085.684,2085.684,2114.5515,2143.6172,2143.6172,2172.881,2172.881,2202.3435
0.0,0.0,0.89280176,2.480005,2.480005,2.480005,2.480005,2.480005,4.86081,4.86081,3.571207,2.480005,1.5872031,0.89280176,2.480005,1.5872031,1.5872031,2.480005,3.571207,4.86081,6.3488126,6.3488126,8.035216,8.035216,8.035216,9.92002,9.92002,12.003224,14.284828,16.764833,16.764833,19.44324,19.44324,19.44324,22.320045,25.39525,25.39525,25.39525,28.668858,28.668858,32.140865,32.140865,35.81127,35.81127,35.81127,39.68008,39.68008,39.68008,39.68008,39.68008,39.68008,39.68008,39.68008,39.68008,39.68008,43.747288,43.747288,43.747288,57.139313,72.31695,83.42737,114.67543,128.56346,158.72032,200.8804,200.8804,209.90762,219.13324,228.55725,238.17967,238.17967,268.23734,278.65335,278.65335,311.09183,333.70947,369.12393,381.32556,393.7256,419.12085,432.11606,458.70172,500.0682,528.6379,572.98035,634.8813,683.39014,699.9566,716.72144,733.6847,750.8463,785.7648,803.5216,821.47687,839.6305,857.98254,857.98254,895.2818,933.3747,972.26117,1011.9412,1011.9412,1032.0789,1072.9493,1072.9493,1157.0712,1178.5975,1200.3224,1244.3673,1266.6874,1266.6874,1289.2058,1289.2058,1311.9226,1357.9515,1357.9515,1381.2635,1404.774,1452.3901,1452.3901,1476.4957,1500.7998,1500.7998,1500.7998,1550.003,1574.9023,1600.0,1625.296,1650.7905,1676.4834,1728.4642,1754.7523,1781.2388,1781.2388,1807.9236,1834.8069,1834.8069,1861.8885,1861.8885,1889.1686,1889.1686,1916.647,1972.1991,1972.1991,2000.2728,2028.5448,2057.0154,2085.684,2085.684,2114.5515,2114.5515,2143.6172,2172.881,2172.881,2202.3435,2232.0044,2261.8638,2261.8638,2291.9214,2291.9214,2291.9214,2232.0044,2232.0044,2202.3435,2172.881,2143.6172,2114.5515,2085.684,2057.0154,2057.0154,2028.5448,2000.2728,1944.3239,1916.647,1834.8069,1807.9236,1781.2388,1728.4642,1676.4834,1650.7905,1625.296,1574.9023,1525.3022,1381.2635,1311.9226,1244.3673,1222.2456,1222.2456,1222.2456,1222.2456,1200.3224,1157.0712,1072.9493,1011.9412,876.53296,821.47687,750.8463,683.39014,558.0011,486.08096,445.3097,393.7256,268.23734,158.72032,101.581,108.029015,108.029015,108.029015,108.029015,108.029015,108.029015,108.029015,108.029015,101.581,89.28018,95.33139,89.28018,89.28018,89.28018,89.28018,89.28018,89.28018,89.28018,83.42737,77.77296,72.31695,77.77296,77.77296,72.31695,114.67543,183.42117,192.05159,200.8804,183.42117,114.67543,72.31695,83.42737,89.28018,89.28018,83.42737,89.28018,89.28018,89.28018,89.28018,89.28018,77.77296,67.05933,158.72032,268.23734,311.09183,311.09183,300.0806,278.65335,228.55725,143.24509,62.000126,77.77296,83.42737,83.42737,83.42737,83.42737,89.28018,89.28018,89.28018,89.28018,89.28018,89.28018,89.28018,89.28018,89.28018,89.28018,89.28018,89.28018,83.42737,83.42737,77.77296,72.31695,72.31695,72.31695,95.33139,101.581,101.581,83.42737,62.000126,121.52024,311.09183,393.7256,472.29214,588.15796,667.02216,650.8525,699.9566,667.02216,634.8813,733.6847,972.26117,1072.9493,1072.9493,1093.6821,1135.743,1334.8379,1222.2456,1178.5975,1157.0712,1178.5975,1200.3224,1157.0712,1157.0712,1157.0712,1157.0712,1200.3224,1244.3673,1289.2058,1311.9226,1334.8379,1357.9515,1428.4829,1500.7998,1525.3022,1574.9023,1600.0,1625.296,1650.7905,1676.4834,1702.3746,1728.4642,1754.7523,1807.9236,1834.8069,1834.8069,1861.8885,1889.1686,1916.647,1972.1991,1944.3239,1944.3239,1972.1991,1944.3239,1972.1991,1972.1991,2000.2728,2000.2728,2028.5448,2057.0154,2085.684,2085.684,2085.684,2085.684,2114.5515
2.480005,2.480005,2.480005,2.480005,1.5872031,0.89280176,0.89280176,0.89280176,0.3968008,1.5872031,0.89280176,0.89280176,2.480005,3.571207,4.86081,3.571207,3.571207,0.89280176,0.89280176,0.0,0.0,0.3968008,1.5872031,2.480005,1.5872031,0.0,0.0,12.003224,16.764833,16.764833,8.035216,6.3488126,6.3488126,4.86081,6.3488126,8.035216,8.035216,8.035216,6.3488126,8.035216,9.92002,19.44324,48.012897,89.28018,135.80507,219.13324,258.0197,268.23734,268.23734,258.0197,248.0005,248.0005,238.17967,228.55725,228.55725,238.17967,258.0197,268.23734,258.0197,248.0005,228.55725,209.90762,183.42117,174.98915,183.42117,200.8804,219.13324,238.17967,258.0197,268.23734,278.65335,278.65335,289.2678,289.2678,300.0806,311.09183,322.30145,333.70947,345.3159,381.32556,419.12085,445.3097,472.29214,514.25385,543.2203,572.98035,588.15796,619.10846,634.8813,634.8813,667.02216,683.39014,699.9566,733.6847,750.8463,785.7648,803.5216,821.47687,839.6305,876.53296,895.2818,914.229,933.3747,952.7187,992.002,1011.9412,1032.0789,1072.9493,1093.6821,1114.6134,1135.743,1157.0712,1178.5975,1200.3224,1222.2456,1244.3673,1244.3673,1266.6874,1289.2058,1334.8379,1357.9515,1381.2635,1404.774,1428.4829,1476.4957,1525.3022,1550.003,1574.9023,1625.296,1676.4834,1702.3746,1728.4642,1781.2388,1807.9236,1807.9236,1834.8069,1861.8885,1889.1686,1916.647,1916.647,1944.3239,1972.1991,1972.1991,2000.2728,2028.5448,2028.5448,2057.0154,2057.0154,2085.684,2114.5515,2143.6172,2143.6172,2172.881,2202.3435,2232.0044,2232.0044,2232.0044,2232.0044,2202.3435,2202.3435,2172.881,2143.6172,2143.6172,2114.5515,2085.684,2057.0154,2057.0154,2000.2728,2000.2728,1944.3239,1916.647,1861.8885,1861.8885,1834.8069,1781.2388,1754.7523,1728.4642,1702.3746,1650.7905,1600.0,1574.9023,1452.3901,1381.2635,1334.8379,1244.3673,1200.3224,1135.743,1072.9493,1032.0789,972.26117,914.229,876.53296,839.6305,785.7648,733.6847,667.02216,619.10846,543.2203,472.29214,432.11606,345.3159,300.0806,258.0197,228.55725,219.13324,209.90762,209.90762,209.90762,200.8804,183.42117,209.90762,228.55725,248.0005,268.23734,278.65335,268.23734,238.17967,200.8804,158.72032,121.52024,101.581,101.581,101.581,101.581,101.581,101.581,95.33139,95.33139,95.33139,89.28018,89.28018,89.28018,89.28018,89.28018,89.28018,89.28018,95.33139,95.33139,95.33139,101.581,101.581,101.581,95.33139,101.581,101.581,95.33139,95.33139,95.33139,95.33139,95.33139,95.33139,95.33139,95.33139,95.33139,95.33139,95.33139,95.33139,95.33139,95.33139,95.33139,95.33139,95.33139,95.33139,95.33139,95.33139,95.33139,95.33139,101.581,95.33139,95.33139,89.28018,77.77296,83.42737,114.67543,150.8835,248.0005,357.12073,432.11606,486.08096,472.29214,458.70172,458.70172,486.08096,558.0011,634.8813,683.39014,733.6847,803.5216,839.6305,839.6305,952.7187,972.26117,952.7187,952.7187,972.26117,992.002,992.002,992.002,992.002,1032.0789,1032.0789,1032.0789,1032.0789,1072.9493,1093.6821,1093.6821,1135.743,1157.0712,1157.0712,1157.0712,1135.743,1157.0712,1178.5975,1222.2456,1289.2058,1266.6874,1311.9226,1311.9226,1404.774,1476.4957,1600.0,1650.7905,1676.4834,1676.4834,1728.4642,1728.4642,1754.7523,1754.7523,1754.7523,1754.7523,1781.2388,1807.9236,1807.9236,1807.9236,1834.8069,1834.8069,1807.9236,1834.8069,1861.8885,1889.1686,1889.1686,1916.647,1944.3239,1972.1991,1972.1991,1972.1991,1972.1991,2000.2728,2028.5448
2.480005,0.89280176,0.0,0.89280176,1.5872031,3.571207,3.571207,4.86081,4.86081,4.86081,4.86081,4.86081,4.86081,6.3488126,6.3488126,6.3488126,8.035216,8.035216,8.035216,8.035216,8.035216,6.3488126,6.3488126,6.3488126,6.3488126,8.035216,8.035216,9.92002,14.284828,16.764833,19.44324,19.44324,16.764833,14.284828,12.003224,12.003224,9.92002,9.92002,8.035216,6.3488126,6.3488126,6.3488126,8.035216,12.003224,16.764833,19.44324,22.320045,25.39525,28.668858,128.56346,289.2678,369.12393,419.12085,445.3097,472.29214,500.0682,528.6379,558.0011,558.0011,558.0011,558.0011,558.0011,543.2203,514.25385,500.0682,472.29214,432.11606,381.32556,357.12073,345.3159,345.3159,345.3159,345.3159,357.12073,369.12393,393.7256,406.324,432.11606,445.3097,458.70172,458.70172,472.29214,500.0682,528.6379,558.0011,558.0011,558.0011,572.98035,572.98035,588.15796,603.534,619.10846,619.10846,634.8813,667.02216,683.39014,699.9566,683.39014,699.9566,733.6847,750.8463,750.8463,785.7648,803.5216,821.47687,839.6305,839.6305,839.6305,857.98254,876.53296,895.2818,914.229,933.3747,933.3747,972.26117,1011.9412,1052.4149,1114.6134,1157.0712,1200.3224,1222.2456,1244.3673,1289.2058,1334.8379,1357.9515,1381.2635,1428.4829,1452.3901,1476.4957,1525.3022,1574.9023,1600.0,1650.7905,1728.4642,1781.2388,1807.9236,1834.8069,1861.8885,1889.1686,1916.647,1972.1991,2000.2728,2028.5448,2057.0154,2085.684,2114.5515,2143.6172,2172.881,2172.881,2172.881,2172.881,2172.881,2172.881,2172.881,2172.881,2172.881,2143.6172,2143.6172,2114.5515,2114.5515,2085.684,2085.684,2057.0154,2028.5448,2000.2728,2000.2728,1972.1991,1944.3239,1916.647,1889.1686,1861.8885,1834.8069,1781.2388,1781.2388,1754.7523,1728.4642,1676.4834,1625.296,1550.003,1525.3022,1476.4957,1428.4829,1357.9515,1311.9226,1289.2058,1266.6874,1244.3673,1178.5975,1114.6134,1052.4149,992.002,933.3747,857.98254,821.47687,785.7648,733.6847,667.02216,603.534,558.0011,528.6379,486.08096,406.324,311.09183,248.0005,228.55725,219.13324,219.13324,228.55725,238.17967,258.0197,278.65335,311.09183,357.12073,369.12393,369.12393,322.30145,289.2678,258.0197,228.55725,192.05159,166.75554,143.24509,121.52024,108.029015,95.33139,95.33139,95.33139,89.28018,89.28018,95.33139,95.33139,95.33139,95.33139,95.33139,95.33139,95.33139,95.33139,101.581,101.581,101.581,101.581,101.581,101.581,101.581,101.581,101.581,101.581,101.581,95.33139,95.33139,89.28018,89.28018,89.28018,95.33139,95.33139,89.28018,89.28018,89.28018,95.33139,95.33139,95.33139,95.33139,95.33139,95.33139,101.581,101.581,95.33139,95.33139,95.33139,89.28018,121.52024,238.17967,357.12073,445.3097,558.0011,619.10846,683.39014,733.6847,803.5216,857.98254,933.3747,972.26117,992.002,992.002,1011.9412,1011.9412,1011.9412,1032.0789,1052.4149,1072.9493,1093.6821,1135.743,1200.3224,1266.6874,1311.9226,1357.9515,1428.4829,1500.7998,1500.7998,1476.4957,1404.774,1357.9515,1311.9226,1289.2058,1289.2058,1289.2058,1289.2058,1311.9226,1334.8379,1381.2635,1428.4829,1476.4957,1500.7998,1525.3022,1550.003,1600.0,1625.296,1650.7905,1676.4834,1676.4834,1702.3746,1728.4642,1728.4642,1754.7523,1781.2388,1807.9236,1834.8069,1861.8885,1889.1686,1916.647,1916.647,1916.647,1944.3239,1944.3239,1944.3239,1944.3239,1972.1991,1972.1991,1972.1991,1972.1991,2000.2728,2000.2728,2000.2728,2000.2728,2000.2728,2000.2728,2028.5448,2028.5448,2028.5448
4.86081,2.480005,2.480005,0.3968008,0.0,0.0,0.0,0.3968008,0.89280176,2.480005,3.571207,4.86081,6.3488126,8.035216,8.035216,8.035216,8.035216,9.92002,12.003224,14.284828,14.284828,16.764833,16.764833,16.764833,14.284828,14.284828,14.284828,14.284828,14.284828,14.284828,16.764833,16.764833,19.44324,19.44324,19.44324,22.320045,22.320045,22.320045,22.320045,22.320045,19.44324,19.44324,19.44324,16.764833,16.764833,19.44324,19.44324,22.320045,32.140865,52.476906,77.77296,95.33139,101.581,114.67543,121.52024,128.56346,143.24509,166.75554,174.98915,166.75554,158.72032,158.72032,166.75554,183.42117,192.05159,192.05159,192.05159,200.8804,209.90762,219.13324,248.0005,258.0197,289.2678,300.0806,311.09183,333.70947,357.12073,393.7256,458.70172,472.29214,458.70172,472.29214,486.08096,514.25385,514.25385,543.2203,572.98035,572.98035,603.534,603.534,603.534,619.10846,619.10846,634.8813,650.8525,667.02216,699.9566,699.9566,716.72144,699.9566,716.72144,716.72144,733.6847,768.20636,768.20636,785.7648,785.7648,768.20636,785.7648,785.7648,785.7648,785.7648,803.5216,821.47687,821.47687,839.6305,876.53296,914.229,952.7187,1052.4149,1135.743,1157.0712,1200.3224,1222.2456,1244.3673,1266.6874,1311.9226,1357.9515,1381.2635,1428.4829,1476.4957,1500.7998,1550.003,1574.9023,1600.0,1625.296,1676.4834,1702.3746,1728.4642,1781.2388,1807.9236,1889.1686,1944.3239,2000.2728,2057.0154,2085.684,2143.6172,2172.881,2202.3435,2202.3435,2202.3435,2172.881,2172.881,2143.6172,2114.5515,2114.5515,2085.684,2057.0154,2057.0154,2028.5448,2000.2728,1972.1991,1972.1991,1944.3239,1944.3239,1944.3239,1916.647,1916.647,1889.1686,1861.8885,1807.9236,1754.7523,1728.4642,1728.4642,1702.3746,1676.4834,1650.7905,1625.296,1600.0,1550.003,1452.3901,1428.4829,1404.774,1381.2635,1357.9515,1334.8379,1289.2058,1244.3673,1178.5975,1093.6821,1032.0789,992.002,933.3747,914.229,876.53296,839.6305,785.7648,733.6847,683.39014,619.10846,572.98035,543.2203,500.0682,458.70172,419.12085,381.32556,381.32556,393.7256,406.324,406.324,406.324,406.324,406.324,381.32556,369.12393,345.3159,311.09183,278.65335,248.0005,219.13324,200.8804,166.75554,114.67543,89.28018,89.28018,89.28018,89.28018,89.28018,89.28018,95.33139,95.33139,95.33139,95.33139,95.33139,95.33139,95.33139,95.33139,95.33139,101.581,101.581,101.581,101.581,101.581,101.581,101.581,101.581,114.67543,128.56346,166.75554,228.55725,300.0806,322.30145,322.30145,322.30145,322.30145,322.30145,322.30145,300.0806,278.65335,248.0005,228.55725,192.05159,121.52024,95.33139,95.33139,95.33139,101.581,101.581,121.52024,158.72032,268.23734,500.0682,803.5216,895.2818,972.26117,1011.9412,1052.4149,1093.6821,1157.0712,1200.3224,1244.3673,1289.2058,1334.8379,1334.8379,1357.9515,1357.9515,1357.9515,1381.2635,1381.2635,1381.2635,1404.774,1404.774,1428.4829,1428.4829,1428.4829,1428.4829,1452.3901,1452.3901,1452.3901,1476.4957,1476.4957,1476.4957,1500.7998,1500.7998,1525.3022,1550.003,1550.003,1574.9023,1600.0,1600.0,1625.296,1625.296,1650.7905,1650.7905,1676.4834,1676.4834,1702.3746,1728.4642,1728.4642,1754.7523,1754.7523,1781.2388,1807.9236,1834.8069,1861.8885,1889.1686,1916.647,1944.3239,1944.3239,1944.3239,1972.1991,1972.1991,1972.1991,1972.1991,2000.2728,2000.2728,2000.2728,2000.2728,2000.2728,2000.2728,2028.5448,2028.5448,2028.5448,2028.5448,2028.5448,2057.0154,2057.0154,2057.0154,2085.684
14.284828,14.284828,12.003224,12.003224,14.284828,14.284828,25.39525,8.035216,2.480005,1.5872031,1.5872031,4.86081,6.3488126,9.92002,9.92002,9.92002,12.003224,12.003224,12.003224,12.003224,12.003224,14.284828,14.284828,14.284828,14.284828,14.284828,16.764833,16.764833,19.44324,19.44324,19.44324,19.44324,19.44324,19.44324,22.320045,25.39525,28.668858,28.668858,28.668858,28.668858,28.668858,28.668858,32.140865,32.140865,32.140865,35.81127,35.81127,35.81127,35.81127,43.747288,67.05933,83.42737,89.28018,95.33139,101.581,108.029015,121.52024,135.80507,143.24509,150.8835,150.8835,158.72032,158.72032,166.75554,174.98915,192.05159,209.90762,238.17967,268.23734,322.30145,357.12073,381.32556,393.7256,393.7256,406.324,432.11606,445.3097,458.70172,472.29214,472.29214,472.29214,472.29214,472.29214,486.08096,486.08096,472.29214,472.29214,486.08096,514.25385,528.6379,558.0011,588.15796,588.15796,588.15796,603.534,650.8525,650.8525,683.39014,683.39014,699.9566,699.9566,716.72144,716.72144,733.6847,733.6847,750.8463,750.8463,768.20636,785.7648,803.5216,821.47687,839.6305,857.98254,895.2818,914.229,952.7187,992.002,1032.0789,1052.4149,1093.6821,1157.0712,1178.5975,1200.3224,1244.3673,1266.6874,1289.2058,1311.9226,1311.9226,1357.9515,1381.2635,1428.4829,1476.4957,1525.3022,1574.9023,1600.0,1625.296,1650.7905,1676.4834,1702.3746,1728.4642,1781.2388,1834.8069,1916.647,1972.1991,2028.5448,2085.684,2172.881,2172.881,2143.6172,2114.5515,2085.684,2057.0154,2057.0154,2028.5448,2000.2728,1972.1991,1972.1991,1972.1991,1944.3239,1944.3239,1916.647,1916.647,1916.647,1916.647,1889.1686,1861.8885,1861.8885,1834.8069,1807.9236,1781.2388,1754.7523,1728.4642,1702.3746,1676.4834,1650.7905,1650.7905,1625.296,1600.0,1574.9023,1525.3022,1476.4957,1452.3901,1381.2635,1357.9515,1334.8379,1311.9226,1266.6874,1244.3673,1222.2456,1178.5975,1157.0712,1135.743,1093.6821,1072.9493,1052.4149,1032.0789,1011.9412,972.26117,914.229,857.98254,803.5216,768.20636,733.6847,699.9566,667.02216,634.8813,603.534,572.98035,543.2203,500.0682,472.29214,458.70172,445.3097,432.11606,419.12085,406.324,381.32556,369.12393,345.3159,333.70947,311.09183,289.2678,278.65335,258.0197,219.13324,192.05159,158.72032,114.67543,89.28018,95.33139,95.33139,95.33139,95.33139,95.33139,101.581,101.581,101.581,101.581,101.581,101.581,108.029015,174.98915,445.3097,543.2203,572.98035,603.534,667.02216,750.8463,952.7187,952.7187,1011.9412,1093.6821,1135.743,1178.5975,1222.2456,1266.6874,1289.2058,1178.5975,914.229,543.2203,514.25385,472.29214,445.3097,432.11606,419.12085,393.7256,393.7256,381.32556,406.324,472.29214,543.2203,572.98035,650.8525,768.20636,972.26117,1178.5975,1244.3673,1266.6874,1289.2058,1357.9515,1404.774,1404.774,1428.4829,1428.4829,1428.4829,1452.3901,1452.3901,1476.4957,1476.4957,1476.4957,1500.7998,1500.7998,1525.3022,1525.3022,1550.003,1550.003,1574.9023,1574.9023,1600.0,1600.0,1600.0,1625.296,1625.296,1625.296,1625.296,1625.296,1625.296,1625.296,1650.7905,1650.7905,1650.7905,1650.7905,1676.4834,1676.4834,1702.3746,1702.3746,1728.4642,1754.7523,1781.2388,1781.2388,1807.9236,1834.8069,1861.8885,1861.8885,1889.1686,1916.647,1916.647,1944.3239,1944.3239,1972.1991,1972.1991,2000.2728,2000.2728,2000.2728,2000.2728,2028.5448,2028.5448,2028.5448,2057.0154,2057.0154,2057.0154,2085.684,2085.684,2085.684,2114.5515,2114.5515,2114.5515,2143.6172,2143.6172
28.668858,28.668858,25.39525,25.39525,25.39525,22.320045,22.320045,22.320045,19.44324,19.44324,19.44324,22.320045,28.668858,35.81127,39.68008,32.140865,28.668858,28.668858,28.668858,28.668858,25.39525,25.39525,25.39525,25.39525,25.39525,25.39525,25.39525,25.39525,22.320045,22.320045,22.320045,19.44324,19.44324,16.764833,16.764833,16.764833,28.668858,39.68008,48.012897,52.476906,57.139313,62.000126,67.05933,72.31695,72.31695,72.31695,77.77296,83.42737,89.28018,95.33139,108.029015,114.67543,128.56346,143.24509,158.72032,183.42117,200.8804,209.90762,238.17967,289.2678,333.70947,369.12393,393.7256,406.324,406.324,406.324,393.7256,381.32556,381.32556,381.32556,381.32556,381.32556,381.32556,381.32556,369.12393,357.12073,345.3159,357.12073,357.12073,345.3159,357.12073,369.12393,369.12393,381.32556,381.32556,393.7256,393.7256,406.324,419.12085,432.11606,432.11606,432.11606,458.70172,486.08096,514.25385,543.2203,558.0011,572.98035,572.98035,603.534,619.10846,634.8813,650.8525,667.02216,699.9566,716.72144,750.8463,785.7648,803.5216,839.6305,857.98254,895.2818,933.3747,952.7187,992.002,1032.0789,1072.9493,1135.743,1157.0712,1200.3224,1244.3673,1266.6874,1289.2058,1311.9226,1334.8379,1334.8379,1357.9515,1357.9515,1404.774,1428.4829,1452.3901,1476.4957,1525.3022,1550.003,1600.0,1625.296,1650.7905,1676.4834,1702.3746,1728.4642,1781.2388,1807.9236,1861.8885,1889.1686,1916.647,1944.3239,1972.1991,2000.2728,2000.2728,2028.5448,2028.5448,2028.5448,2000.2728,2000.2728,1972.1991,1972.1991,1972.1991,1944.3239,1944.3239,1944.3239,1916.647,1916.647,1916.647,1889.1686,1889.1686,1889.1686,1861.8885,1861.8885,1861.8885,1834.8069,1807.9236,1807.9236,1781.2388,1728.4642,1702.3746,1676.4834,1650.7905,1625.296,1600.0,1574.9023,1525.3022,1476.4957,1452.3901,1428.4829,1404.774,1334.8379,1266.6874,1244.3673,1222.2456,1200.3224,1200.3224,1178.5975,1157.0712,1135.743,1114.6134,1093.6821,1052.4149,1032.0789,992.002,952.7187,914.229,857.98254,821.47687,803.5216,785.7648,750.8463,716.72144,699.9566,683.39014,667.02216,650.8525,650.8525,650.8525,634.8813,634.8813,619.10846,603.534,572.98035,543.2203,514.25385,500.0682,486.08096,472.29214,458.70172,445.3097,432.11606,419.12085,393.7256,311.09183,158.72032,95.33139,95.33139,95.33139,95.33139,95.33139,101.581,101.581,143.24509,357.12073,785.7648,803.5216,821.47687,876.53296,952.7187,1032.0789,1178.5975,1200.3224,1244.3673,1311.9226,1381.2635,1404.774,1404.774,1476.4957,1702.3746,1428.4829,1157.0712,992.002,895.2818,857.98254,876.53296,876.53296,876.53296,876.53296,876.53296,876.53296,876.53296,876.53296,895.2818,895.2818,933.3747,972.26117,1032.0789,1135.743,1244.3673,1357.9515,1404.774,1428.4829,1428.4829,1428.4829,1452.3901,1476.4957,1500.7998,1500.7998,1500.7998,1525.3022,1525.3022,1550.003,1574.9023,1574.9023,1600.0,1600.0,1625.296,1625.296,1625.296,1625.296,1625.296,1650.7905,1650.7905,1650.7905,1650.7905,1650.7905,1650.7905,1676.4834,1676.4834,1676.4834,1676.4834,1676.4834,1702.3746,1702.3746,1702.3746,1728.4642,1728.4642,1754.7523,1754.7523,1781.2388,1807.9236,1807.9236,1834.8069,1834.8069,1861.8885,1889.1686,1916.647,1916.647,1944.3239,1972.1991,1972.1991,2000.2728,2000.2728,2028.5448,2028.5448,2057.0154,2057.0154,2057.0154,2085.684,2085.684,2114.5515,2114.5515,2114.5515,2143.6172,2143.6172,2172.881,2172.881,2202.3435,2202.3435,2232.0044,2232.0044,2261.8638,2261.8638,2291.9214
25.39525,25.39525,28.668858,28.668858,32.140865,32.140865,32.140865,35.81127,35.81127,32.140865,32.140865,32.140865,32.140865,32.140865,32.140865,35.81127,35.81127,39.68008,39.68008,39.68008,39.68008,39.68008,39.68008,39.68008,35.81127,35.81127,35.81127,35.81127,35.81127,35.81127,39.68008,39.68008,39.68008,39.68008,43.747288,43.747288,43.747288,48.012897,57.139313,62.000126,72.31695,72.31695,77.77296,83.42737,89.28018,95.33139,101.581,114.67543,128.56346,143.24509,150.8835,158.72032,166.75554,166.75554,174.98915,174.98915,166.75554,158.72032,150.8835,183.42117,200.8804,200.8804,200.8804,200.8804,200.8804,200.8804,209.90762,219.13324,228.55725,238.17967,258.0197,311.09183,345.3159,357.12073,345.3159,345.3159,357.12073,357.12073,345.3159,345.3159,345.3159,369.12393,381.32556,381.32556,419.12085,432.11606,445.3097,458.70172,486.08096,514.25385,543.2203,558.0011,572.98035,603.534,619.10846,650.8525,683.39014,699.9566,716.72144,733.6847,750.8463,768.20636,785.7648,803.5216,803.5216,821.47687,839.6305,857.98254,895.2818,914.229,933.3747,952.7187,952.7187,992.002,1011.9412,1052.4149,1072.9493,1114.6134,1157.0712,1178.5975,1200.3224,1222.2456,1244.3673,1266.6874,1311.9226,1334.8379,1357.9515,1404.774,1452.3901,1476.4957,1500.7998,1525.3022,1525.3022,1525.3022,1550.003,1574.9023,1625.296,1650.7905,1676.4834,1728.4642,1728.4642,1754.7523,1781.2388,1807.9236,1834.8069,1861.8885,1861.8885,1861.8885,1889.1686,1889.1686,1916.647,1916.647,1944.3239,1972.1991,1972.1991,1972.1991,1972.1991,1972.1991,1972.1991,1972.1991,1972.1991,1972.1991,1972.1991,1972.1991,1916.647,1916.647,1889.1686,1889.1686,1889.1686,1889.1686,1889.1686,1861.8885,1834.8069,1807.9236,1781.2388,1702.3746,1650.7905,1600.0,1574.9023,1574.9023,1574.9023,1550.003,1525.3022,1500.7998,1476.4957,1428.4829,1428.4829,1404.774,1381.2635,1357.9515,1334.8379,1311.9226,1311.9226,1289.2058,1266.6874,1266.6874,1244.3673,1222.2456,1200.3224,1178.5975,1157.0712,1114.6134,1114.6134,1093.6821,1072.9493,1072.9493,1052.4149,1032.0789,1011.9412,1011.9412,992.002,972.26117,972.26117,952.7187,933.3747,914.229,895.2818,876.53296,857.98254,839.6305,803.5216,768.20636,667.02216,528.6379,472.29214,369.12393,322.30145,278.65335,238.17967,200.8804,192.05159,183.42117,183.42117,192.05159,219.13324,248.0005,432.11606,750.8463,572.98035,619.10846,785.7648,952.7187,992.002,1266.6874,1404.774,1428.4829,1428.4829,1428.4829,1381.2635,1357.9515,1334.8379,1289.2058,1222.2456,1178.5975,1157.0712,1135.743,1114.6134,1093.6821,1072.9493,1072.9493,1072.9493,1072.9493,1072.9493,1072.9493,1093.6821,1093.6821,1114.6134,1157.0712,1200.3224,1289.2058,1334.8379,1381.2635,1404.774,1428.4829,1452.3901,1452.3901,1476.4957,1500.7998,1525.3022,1550.003,1550.003,1574.9023,1600.0,1600.0,1625.296,1625.296,1650.7905,1650.7905,1650.7905,1676.4834,1676.4834,1702.3746,1702.3746,1702.3746,1728.4642,1728.4642,1728.4642,1754.7523,1754.7523,1754.7523,1781.2388,1781.2388,1807.9236,1807.9236,1807.9236,1834.8069,1834.8069,1861.8885,1861.8885,1889.1686,1889.1686,1916.647,1944.3239,1944.3239,1972.1991,1972.1991,2000.2728,2028.5448,2028.5448,2057.0154,2057.0154,2085.684,2085.684,2114.5515,2114.5515,2114.5515,2143.6172,2143.6172,2143.6172,2172.881,2172.881,2172.881,2202.3435,2202.3435,2232.0044,2232.0044,2261.8638,2261.8638,2291.9214,2291.9214,2322.1775,2322.1775,2322.1775,2352.6318,2352.6318,2352.6318,2352.6318,2383.2847,2383.2847
19.44324,19.44324,22.320045,25.39525,28.668858,28.668858,32.140865,32.140865,32.140865,35.81127,35.81127,35.81127,39.68008,39.68008,39.68008,39.68008,39.68008,43.747288,43.747288,43.747288,43.747288,43.747288,48.012897,48.012897,48.012897,48.012897,48.012897,48.012897,48.012897,48.012897,48.012897,48.012897,48.012897,48.012897,48.012897,48.012897,48.012897,43.747288,43.747288,48.012897,52.476906,57.139313,62.000126,67.05933,72.31695,77.77296,77.77296,83.42737,83.42737,89.28018,95.33139,95.33139,101.581,101.581,108.029015,114.67543,121.52024,135.80507,143.24509,143.24509,143.24509,150.8835,150.8835,158.72032,174.98915,200.8804,219.13324,238.17967,268.23734,289.2678,311.09183,333.70947,357.12073,381.32556,406.324,419.12085,432.11606,432.11606,432.11606,419.12085,432.11606,500.0682,528.6379,528.6379,528.6379,543.2203,558.0011,558.0011,572.98035,588.15796,603.534,634.8813,650.8525,683.39014,716.72144,750.8463,785.7648,821.47687,839.6305,857.98254,857.98254,857.98254,876.53296,876.53296,895.2818,895.2818,914.229,933.3747,952.7187,952.7187,972.26117,992.002,992.002,1011.9412,1032.0789,1052.4149,1093.6821,1135.743,1157.0712,1200.3224,1222.2456,1266.6874,1311.9226,1381.2635,1404.774,1452.3901,1476.4957,1525.3022,1574.9023,1600.0,1650.7905,1676.4834,1702.3746,1728.4642,1754.7523,1754.7523,1781.2388,1807.9236,1861.8885,1889.1686,1889.1686,1916.647,1944.3239,1944.3239,1972.1991,1972.1991,1972.1991,1972.1991,1972.1991,1972.1991,1972.1991,1944.3239,1944.3239,1944.3239,1944.3239,1944.3239,1944.3239,1972.1991,2000.2728,2028.5448,2085.684,2143.6172,2172.881,2172.881,2172.881,2172.881,2143.6172,2143.6172,2057.0154,2000.2728,1944.3239,1944.3239,1972.1991,1972.1991,1972.1991,1972.1991,2000.2728,1944.3239,1861.8885,1807.9236,1676.4834,1574.9023,1600.0,1625.296,1625.296,1574.9023,1525.3022,1476.4957,1452.3901,1428.4829,1428.4829,1404.774,1381.2635,1357.9515,1334.8379,1289.2058,1266.6874,1244.3673,1200.3224,1178.5975,1157.0712,1114.6134,1093.6821,1072.9493,1032.0789,1011.9412,992.002,972.26117,952.7187,933.3747,895.2818,839.6305,803.5216,768.20636,768.20636,750.8463,733.6847,699.9566,650.8525,588.15796,543.2203,528.6379,500.0682,486.08096,500.0682,528.6379,432.11606,333.70947,369.12393,419.12085,486.08096,528.6379,558.0011,603.534,667.02216,733.6847,750.8463,785.7648,821.47687,857.98254,933.3747,992.002,1032.0789,1072.9493,1093.6821,1114.6134,1157.0712,1178.5975,1222.2456,1244.3673,1289.2058,1289.2058,1311.9226,1334.8379,1334.8379,1357.9515,1357.9515,1334.8379,1334.8379,1334.8379,1311.9226,1311.9226,1311.9226,1311.9226,1311.9226,1334.8379,1357.9515,1404.774,1452.3901,1476.4957,1500.7998,1525.3022,1550.003,1574.9023,1600.0,1625.296,1650.7905,1650.7905,1676.4834,1676.4834,1702.3746,1702.3746,1702.3746,1702.3746,1728.4642,1728.4642,1754.7523,1754.7523,1781.2388,1781.2388,1807.9236,1807.9236,1834.8069,1861.8885,1861.8885,1889.1686,1889.1686,1916.647,1916.647,1944.3239,1944.3239,1944.3239,1972.1991,1972.1991,1972.1991,2000.2728,2000.2728,2028.5448,2028.5448,2057.0154,2085.684,2085.684,2114.5515,2114.5515,2143.6172,2143.6172,2143.6172,2172.881,2172.881,2172.881,2202.3435,2202.3435,2232.0044,2232.0044,2232.0044,2261.8638,2261.8638,2291.9214,2291.9214,2291.9214,2322.1775,2322.1775,2322.1775,2322.1775,2352.6318,2352.6318,2352.6318,2352.6318,2352.6318,2383.2847,2383.2847,2383.2847,2383.2847,2383.2847,2414.136,2414.136,2414.136,2414.136,2445.1858
1702.3746,750.8463,634.8813,1428.4829,1625.296,1381.2635,1266.6874,1357.9515,1428.4829,1157.0712,952.7187,588.15796,785.7648,528.6379,768.20636,472.29214,393.7256,238.17967,101.581,57.139313,57.139313,57.139313,57.139313,57.139313,57.139313,57.139313,57.139313,57.139313,57.139313,57.139313,57.139313,57.139313,57.139313,57.139313,57.139313,57.139313,57.139313,57.139313,57.139313,57.139313,52.476906,52.476906,52.476906,52.476906,52.476906,52.476906,52.476906,57.139313,57.139313,57.139313,57.139313,62.000126,67.05933,72.31695,77.77296,83.42737,95.33139,101.581,114.67543,128.56346,143.24509,150.8835,150.8835,150.8835,158.72032,158.72032,158.72032,183.42117,200.8804,209.90762,248.0005,258.0197,278.65335,289.2678,311.09183,322.30145,333.70947,345.3159,357.12073,393.7256,419.12085,458.70172,500.0682,543.2203,558.0011,588.15796,619.10846,650.8525,683.39014,716.72144,733.6847,750.8463,785.7648,803.5216,839.6305,876.53296,895.2818,895.2818,895.2818,895.2818,914.229,933.3747,972.26117,992.002,1011.9412,1032.0789,1052.4149,1093.6821,1135.743,1178.5975,1200.3224,1244.3673,1266.6874,1289.2058,1311.9226,1357.9515,1404.774,1476.4957,1525.3022,1550.003,1574.9023,1600.0,1728.4642,2057.0154,1944.3239,1944.3239,2202.3435,2291.9214,2352.6318,2143.6172,2028.5448,2000.2728,2000.2728,2028.5448,2057.0154,2000.2728,1916.647,1916.647,1889.1686,1944.3239,1972.1991,1972.1991,2143.6172,2172.881,2172.881,2143.6172,2172.881,2202.3435,2202.3435,2232.0044,2261.8638,2291.9214,2322.1775,2291.9214,2291.9214,2291.9214,2322.1775,2114.5515,1944.3239,1916.647,1944.3239,1972.1991,1972.1991,2028.5448,2085.684,2172.881,2202.3435,2202.3435,2202.3435,2202.3435,2172.881,2143.6172,2114.5515,2085.684,2057.0154,2028.5448,1944.3239,1861.8885,1754.7523,1650.7905,1550.003,1452.3901,1381.2635,1404.774,1404.774,1381.2635,1381.2635,1357.9515,1334.8379,1334.8379,1311.9226,1289.2058,1266.6874,1222.2456,1200.3224,1178.5975,1178.5975,1157.0712,1157.0712,1135.743,1114.6134,1114.6134,1114.6134,1114.6134,1093.6821,1093.6821,1072.9493,1072.9493,1072.9493,1052.4149,1052.4149,1052.4149,1052.4149,1052.4149,1072.9493,1072.9493,1072.9493,1072.9493,1052.4149,1052.4149,1093.6821,1135.743,1178.5975,1178.5975,1222.2456,1178.5975,1157.0712,1093.6821,972.26117,972.26117,933.3747,1032.0789,1135.743,1178.5975,1200.3224,1200.3224,1222.2456,1222.2456,1222.2456,1244.3673,1244.3673,1266.6874,1289.2058,1311.9226,1334.8379,1357.9515,1357.9515,1381.2635,1404.774,1404.774,1428.4829,1428.4829,1428.4829,1452.3901,1452.3901,1452.3901,1452.3901,1452.3901,1452.3901,1476.4957,1476.4957,1500.7998,1500.7998,1525.3022,1525.3022,1550.003,1550.003,1574.9023,1600.0,1625.296,1650.7905,1676.4834,1702.3746,1728.4642,1728.4642,1728.4642,1754.7523,1754.7523,1754.7523,1781.2388,1781.2388,1807.9236,1807.9236,1834.8069,1861.8885,1861.8885,1889.1686,1916.647,1916.647,1944.3239,1944.3239,1972.1991,1972.1991,1972.1991,2000.2728,2000.2728,2028.5448,2028.5448,2028.5448,2028.5448,2057.0154,2057.0154,2085.684,2085.684,2085.684,2114.5515,2114.5515,2143.6172,2143.6172,2143.6172,2172.881,2172.881,2202.3435,2202.3435,2202.3435,2232.0044,2232.0044,2261.8638,2261.8638,2261.8638,2291.9214,2291.9214,2322.1775,2322.1775,2322.1775,2322.1775,2352.6318,2352.6318,2352.6318,2352.6318,2383.2847,2383.2847,2383.2847,2383.2847,2383.2847,2414.136,2414.136,2414.136,2414.136,2445.1858,2445.1858,2445.1858,2476.4338,2476.4338,2476.4338,2476.4338,2507.8801,2507.8801,2507.8801
1676.4834,1625.296,1550.003,1650.7905,2085.684,2322.1775,2571.3684,2668.0886,2539.5251,2635.6501,2700.7253,2766.5942,2766.5942,2414.136,1650.7905,1500.7998,1550.003,1650.7905,1916.647,1972.1991,2028.5448,1550.003,1404.774,1334.8379,1266.6874,1244.3673,1093.6821,667.02216,311.09183,192.05159,121.52024,67.05933,62.000126,62.000126,62.000126,62.000126,62.000126,62.000126,62.000126,62.000126,62.000126,62.000126,62.000126,62.000126,62.000126,62.000126,62.000126,62.000126,62.000126,62.000126,62.000126,62.000126,62.000126,62.000126,62.000126,62.000126,62.000126,67.05933,72.31695,77.77296,77.77296,83.42737,95.33139,128.56346,158.72032,192.05159,228.55725,258.0197,238.17967,219.13324,228.55725,258.0197,268.23734,278.65335,300.0806,311.09183,345.3159,381.32556,406.324,432.11606,472.29214,514.25385,558.0011,619.10846,667.02216,699.9566,716.72144,733.6847,733.6847,733.6847,750.8463,768.20636,803.5216,839.6305,857.98254,914.229,952.7187,972.26117,1011.9412,1052.4149,1093.6821,1135.743,1200.3224,1266.6874,1357.9515,1404.774,1476.4957,1525.3022,1574.9023,1600.0,1650.7905,1676.4834,1702.3746,1728.4642,1781.2388,1807.9236,1944.3239,1944.3239,1944.3239,1944.3239,2000.2728,2028.5448,2028.5448,2057.0154,2114.5515,2143.6172,2172.881,2202.3435,2202.3435,2202.3435,2202.3435,2202.3435,2202.3435,2172.881,2172.881,2202.3435,2172.881,2202.3435,2202.3435,2202.3435,2202.3435,2202.3435,2172.881,2172.881,2143.6172,2143.6172,2114.5515,2114.5515,2114.5515,2114.5515,2114.5515,2114.5515,2114.5515,2114.5515,2114.5515,2085.684,2028.5448,1972.1991,1944.3239,1944.3239,1972.1991,2028.5448,2114.5515,2172.881,2202.3435,2232.0044,2232.0044,2232.0044,2261.8638,2322.1775,2352.6318,2352.6318,2291.9214,2143.6172,2000.2728,1889.1686,1807.9236,1702.3746,1625.296,1550.003,1476.4957,1381.2635,1311.9226,1289.2058,1266.6874,1266.6874,1289.2058,1334.8379,1334.8379,1334.8379,1289.2058,1266.6874,1266.6874,1244.3673,1244.3673,1222.2456,1222.2456,1200.3224,1200.3224,1200.3224,1200.3224,1200.3224,1200.3224,1222.2456,1222.2456,1222.2456,1222.2456,1222.2456,1222.2456,1244.3673,1244.3673,1266.6874,1266.6874,1266.6874,1266.6874,1289.2058,1289.2058,1311.9226,1311.9226,1334.8379,1334.8379,1334.8379,1357.9515,1381.2635,1404.774,1428.4829,1452.3901,1476.4957,1476.4957,1476.4957,1428.4829,1404.774,1404.774,1381.2635,1381.2635,1381.2635,1381.2635,1404.774,1452.3901,1476.4957,1500.7998,1525.3022,1550.003,1550.003,1574.9023,1574.9023,1600.0,1600.0,1600.0,1600.0,1625.296,1625.296,1625.296,1625.296,1625.296,1650.7905,1650.7905,1650.7905,1650.7905,1650.7905,1676.4834,1676.4834,1676.4834,1702.3746,1702.3746,1702.3746,1702.3746,1728.4642,1728.4642,1728.4642,1728.4642,1754.7523,1754.7523,1754.7523,1781.2388,1781.2388,1807.9236,1834.8069,1834.8069,1861.8885,1889.1686,1889.1686,1916.647,1916.647,1944.3239,1944.3239,1972.1991,1972.1991,2000.2728,2000.2728,2028.5448,2028.5448,2057.0154,2057.0154,2085.684,2085.684,2085.684,2085.684,2085.684,2114.5515,2114.5515,2114.5515,2114.5515,2143.6172,2143.6172,2143.6172,2172.881,2172.881,2202.3435,2202.3435,2232.0044,2232.0044,2261.8638,2261.8638,2291.9214,2291.9214,2322.1775,2322.1775,2322.1775,2352.6318,2352.6318,2352.6318,2383.2847,2383.2847,2383.2847,2414.136,2414.136,2414.136,2414.136,2445.1858,2445.1858,2445.1858,2445.1858,2476.4338,2476.4338,2476.4338,2476.4338,2476.4338,2507.8801,2507.8801,2507.8801,2507.8801,2507.8801,2539.5251,2539.5251,2539.5251,2539.5251,2539.5251,2539.5251
2507.8801,2539.5251,2571.3684,2603.41,2635.6501,2635.6501,2668.0886,2668.0886,2668.0886,2700.7253,2700.7253,2733.5605,2766.5942,2766.5942,2766.5942,2766.5942,2799.8264,2833.2568,2799.8264,2733.5605,2539.5251,2414.136,2202.3435,2383.2847,2833.2568,2414.136,3249.8977,3322.1155,1702.3746,1311.9226,1244.3673,1357.9515,1889.1686,1916.647,1404.774,650.8525,588.15796,716.72144,1311.9226,1944.3239,1650.7905,1311.9226,1244.3673,1072.9493,933.3747,839.6305,1244.3673,1266.6874,716.72144,619.10846,634.8813,803.5216,895.2818,1072.9493,1032.0789,1011.9412,1222.2456,1550.003,1200.3224,1072.9493,1052.4149,1072.9493,1072.9493,1222.2456,1157.0712,1135.743,1178.5975,1222.2456,1244.3673,1289.2058,1334.8379,1289.2058,1289.2058,1334.8379,1334.8379,1289.2058,1311.9226,1357.9515,1861.8885,2000.2728,1916.647,1754.7523,1600.0,1381.2635,1289.2058,1222.2456,1222.2456,1178.5975,1178.5975,1200.3224,1266.6874,1428.4829,1550.003,1574.9023,1676.4834,2261.8638,2900.713,2202.3435,3003.3853,3072.8254,3003.3853,2934.7388,2900.713,2900.713,2866.8857,2866.8857,2866.8857,2799.8264,2799.8264,2733.5605,2668.0886,2635.6501,2603.41,2603.41,2571.3684,2571.3684,2571.3684,2539.5251,2476.4338,2383.2847,2352.6318,2352.6318,2352.6318,2322.1775,2322.1775,2322.1775,2322.1775,2322.1775,2352.6318,2352.6318,2352.6318,2352.6318,2383.2847,2383.2847,2383.2847,2414.136,2414.136,2445.1858,2445.1858,2476.4338,2476.4338,2507.8801,2507.8801,2507.8801,2539.5251,2539.5251,2539.5251,2539.5251,2507.8801,2507.8801,2476.4338,2414.136,2352.6318,2291.9214,2202.3435,2143.6172,2085.684,2028.5448,1972.1991,1944.3239,1944.3239,1916.647,1916.647,1916.647,1916.647,1916.647,1889.1686,1889.1686,1861.8885,1861.8885,1834.8069,1834.8069,1834.8069,1834.8069,1834.8069,1807.9236,1834.8069,1834.8069,1754.7523,1702.3746,1650.7905,1574.9023,1550.003,1550.003,1550.003,1550.003,1574.9023,1574.9023,1600.0,1600.0,1625.296,1625.296,1625.296,1600.0,1574.9023,1550.003,1525.3022,1476.4957,1428.4829,1381.2635,1357.9515,1334.8379,1311.9226,1311.9226,1311.9226,1289.2058,1289.2058,1289.2058,1289.2058,1289.2058,1311.9226,1311.9226,1334.8379,1357.9515,1381.2635,1381.2635,1404.774,1404.774,1452.3901,1500.7998,1525.3022,1525.3022,1550.003,1550.003,1550.003,1574.9023,1574.9023,1574.9023,1600.0,1650.7905,1676.4834,1702.3746,1728.4642,1754.7523,1754.7523,1754.7523,1754.7523,1754.7523,1754.7523,1754.7523,1754.7523,1754.7523,1754.7523,1754.7523,1754.7523,1754.7523,1754.7523,1754.7523,1754.7523,1754.7523,1754.7523,1781.2388,1781.2388,1781.2388,1781.2388,1781.2388,1781.2388,1781.2388,1781.2388,1781.2388,1781.2388,1781.2388,1807.9236,1807.9236,1807.9236,1807.9236,1834.8069,1834.8069,1834.8069,1861.8885,1861.8885,1861.8885,1861.8885,1889.1686,1889.1686,1889.1686,1916.647,1916.647,1944.3239,1972.1991,1972.1991,2000.2728,2000.2728,2000.2728,2028.5448,2028.5448,2057.0154,2057.0154,2057.0154,2085.684,2085.684,2085.684,2114.5515,2114.5515,2114.5515,2114.5515,2114.5515,2143.6172,2143.6172,2143.6172,2143.6172,2143.6172,2143.6172,2172.881,2172.881,2202.3435,2202.3435,2232.0044,2261.8638,2261.8638,2291.9214,2291.9214,2322.1775,2322.1775,2352.6318,2352.6318,2352.6318,2383.2847,2383.2847,2414.136,2414.136,2414.136,2414.136,2445.1858,2445.1858,2445.1858,2445.1858,2476.4338,2476.4338,2476.4338,2476.4338,2507.8801,2507.8801,2507.8801,2507.8801,2507.8801,2539.5251,2539.5251,2539.5251,2539.5251,2539.5251,2539.5251,2539.5251,2539.5251,2571.3684,2571.3684,2571.3684,2571.3684,2571.3684
2733.5605,2700.7253,2700.7253,2668.0886,2635.6501,2635.6501,2635.6501,2603.41,2603.41,2571.3684,2571.3684,2539.5251,2507.8801,2445.1858,2383.2847,2352.6318,2261.8638,2172.881,2143.6172,2085.684,2057.0154,2000.2728,1972.1991,1944.3239,1916.647,1889.1686,1834.8069,1807.9236,1754.7523,1650.7905,1625.296,1702.3746,1728.4642,1781.2388,1889.1686,2202.3435,2539.5251,2700.7253,3107.843,3656.916,3395.1267,3395.1267,2766.5942,2028.5448,1861.8885,1754.7523,1625.296,1625.296,1754.7523,1452.3901,1381.2635,1452.3901,1404.774,1334.8379,1244.3673,1266.6874,1452.3901,1600.0,1728.4642,1972.1991,2232.0044,2507.8801,2445.1858,2291.9214,2057.0154,2085.684,2114.5515,2143.6172,2172.881,2202.3435,2232.0044,2261.8638,2322.1775,2383.2847,2414.136,2445.1858,2476.4338,2476.4338,2507.8801,2507.8801,2507.8801,2507.8801,2476.4338,2476.4338,2476.4338,2539.5251,2603.41,2668.0886,2700.7253,2733.5605,2766.5942,2733.5605,2733.5605,2202.3435,2028.5448,2000.2728,1861.8885,1781.2388,1754.7523,1754.7523,1781.2388,1916.647,1972.1991,1944.3239,2028.5448,2143.6172,2172.881,2202.3435,2232.0044,2261.8638,2291.9214,2322.1775,2322.1775,2352.6318,2352.6318,2352.6318,2352.6318,2352.6318,2352.6318,2352.6318,2352.6318,2352.6318,2383.2847,2383.2847,2414.136,2414.136,2414.136,2445.1858,2445.1858,2445.1858,2476.4338,2476.4338,2476.4338,2507.8801,2507.8801,2539.5251,2571.3684,2571.3684,2571.3684,2603.41,2603.41,2603.41,2603.41,2603.41,2603.41,2603.41,2571.3684,2539.5251,2507.8801,2476.4338,2445.1858,2383.2847,2322.1775,2261.8638,2202.3435,2143.6172,2114.5515,2057.0154,2028.5448,2028.5448,2000.2728,1972.1991,1972.1991,1944.3239,1944.3239,1916.647,1916.647,1889.1686,1889.1686,1889.1686,1861.8885,1861.8885,1834.8069,1834.8069,1834.8069,1807.9236,1807.9236,1807.9236,1807.9236,1781.2388,1781.2388,1781.2388,1781.2388,1754.7523,1754.7523,1754.7523,1754.7523,1728.4642,1728.4642,1728.4642,1728.4642,1728.4642,1702.3746,1702.3746,1702.3746,1702.3746,1702.3746,1676.4834,1676.4834,1676.4834,1650.7905,1625.296,1625.296,1600.0,1600.0,1574.9023,1550.003,1550.003,1550.003,1550.003,1550.003,1574.9023,1574.9023,1600.0,1600.0,1625.296,1650.7905,1650.7905,1676.4834,1702.3746,1728.4642,1754.7523,1781.2388,1807.9236,1834.8069,1861.8885,1889.1686,1889.1686,1916.647,1916.647,1944.3239,1944.3239,1972.1991,1972.1991,1972.1991,1972.1991,1972.1991,1972.1991,1972.1991,1944.3239,1944.3239,1944.3239,1944.3239,1944.3239,1916.647,1916.647,1916.647,1916.647,1916.647,1916.647,1916.647,1916.647,1916.647,1916.647,1916.647,1916.647,1916.647,1916.647,1944.3239,1944.3239,1944.3239,1944.3239,1944.3239,1972.1991,1972.1991,1972.1991,2000.2728,2000.2728,2000.2728,2000.2728,2028.5448,2028.5448,2028.5448,2057.0154,2057.0154,2057.0154,2057.0154,2085.684,2085.684,2085.684,2085.684,2085.684,2114.5515,2114.5515,2114.5515,2114.5515,2114.5515,2114.5515,2114.5515,2114.5515,2143.6172,2143.6172,2143.6172,2143.6172,2143.6172,2143.6172,2143.6172,2172.881,2172.881,2172.881,2202.3435,2202.3435,2202.3435,2232.0044,2232.0044,2232.0044,2261.8638,2261.8638,2261.8638,2291.9214,2291.9214,2291.9214,2322.1775,2322.1775,2322.1775,2352.6318,2352.6318,2352.6318,2352.6318,2383.2847,2383.2847,2383.2847,2414.136,2414.136,2414.136,2414.136,2445.1858,2445.1858,2445.1858,2445.1858,2476.4338,2476.4338,2476.4338,2476.4338,2476.4338,2507.8801,2507.8801,2507.8801,2507.8801,2539.5251,2539.5251,2539.5251,2539.5251,2539.5251,2539.5251,2571.3684,2571.3684,2571.3684,2571.3684
2900.713,2900.713,2900.713,2866.8857,2866.8857,2833.2568,2833.2568,2799.8264,2799.8264,2766.5942,2733.5605,2700.7253,2668.0886,2635.6501,2635.6501,2635.6501,2603.41,2603.41,2603.41,2571.3684,2507.8801,2445.1858,2383.2847,2352.6318,2322.1775,2291.9214,2261.8638,2261.8638,2291.9214,2322.1775,2352.6318,2352.6318,2352.6318,2352.6318,2352.6318,2352.6318,2352.6318,2352.6318,2383.2847,2383.2847,2414.136,2414.136,2445.1858,2414.136,2476.4338,2603.41,2539.5251,2172.881,2172.881,2057.0154,1972.1991,1889.1686,1861.8885,1861.8885,1861.8885,1889.1686,2028.5448,2232.0044,2202.3435,2202.3435,2934.7388,3038.006,3072.8254,2833.2568,2383.2847,2539.5251,2352.6318,2383.2847,2352.6318,2352.6318,2352.6318,2383.2847,2414.136,2445.1858,2445.1858,2445.1858,2476.4338,2476.4338,2476.4338,2476.4338,2476.4338,2445.1858,2445.1858,2445.1858,2445.1858,2414.136,2414.136,2414.136,2414.136,2383.2847,2383.2847,2383.2847,2352.6318,2352.6318,2352.6318,2322.1775,2322.1775,2322.1775,2322.1775,2291.9214,2291.9214,2291.9214,2291.9214,2291.9214,2291.9214,2322.1775,2322.1775,2352.6318,2352.6318,2383.2847,2383.2847,2414.136,2414.136,2445.1858,2445.1858,2445.1858,2476.4338,2476.4338,2476.4338,2476.4338,2476.4338,2476.4338,2507.8801,2507.8801,2507.8801,2507.8801,2507.8801,2507.8801,2507.8801,2507.8801,2539.5251,2539.5251,2539.5251,2539.5251,2539.5251,2539.5251,2539.5251,2539.5251,2539.5251,2539.5251,2539.5251,2539.5251,2507.8801,2507.8801,2507.8801,2507.8801,2476.4338,2476.4338,2445.1858,2445.1858,2445.1858,2414.136,2414.136,2383.2847,2383.2847,2352.6318,2322.1775,2291.9214,2261.8638,2232.0044,2232.0044,2202.3435,2172.881,2143.6172,2114.5515,2114.5515,2085.684,2057.0154,2028.5448,2028.5448,2000.2728,2000.2728,1972.1991,1972.1991,1972.1991,1944.3239,1944.3239,1944.3239,1944.3239,1944.3239,1972.1991,1972.1991,1972.1991,1972.1991,2000.2728,2000.2728,2028.5448,2028.5448,2057.0154,2057.0154,2085.684,2085.684,2085.684,2114.5515,2114.5515,2114.5515,2114.5515,2114.5515,2114.5515,2114.5515,2114.5515,2114.5515,2114.5515,2114.5515,2114.5515,2114.5515,2114.5515,2114.5515,2114.5515,2114.5515,2114.5515,2114.5515,2114.5515,2114.5515,2114.5515,2114.5515,2114.5515,2143.6172,2143.6172,2143.6172,2143.6172,2143.6172,2143.6172,2143.6172,2143.6172,2143.6172,2143.6172,2143.6172,2143.6172,2172.881,2172.881,2172.881,2172.881,2172.881,2172.881,2172.881,2143.6172,2143.6172,2143.6172,2143.6172,2143.6172,2114.5515,2114.5515,2114.5515,2114.5515,2085.684,2085.684,2085.684,2085.684,2085.684,2085.684,2085.684,2085.684,2085.684,2085.684,2085.684,2085.684,2085.684,2114.5515,2114.5515,2114.5515,2114.5515,2114.5515,2143.6172,2143.6172,2143.6172,2143.6172,2143.6172,2143.6172,2143.6172,2143.6172,2143.6172,2143.6172,2143.6172,2172.881,2172.881,2172.881,2172.881,2172.881,2172.881,2172.881,2172.881,2172.881,2172.881,2172.881,2172.881,2172.881,2172.881,2202.3435,2202.3435,2202.3435,2202.3435,2202.3435,2202.3435,2202.3435,2202.3435,2232.0044,2232.0044,2232.0044,2232.0044,2261.8638,2261.8638,2261.8638,2261.8638,2261.8638,2261.8638,2291.9214,2291.9214,2291.9214,2291.9214,2291.9214,2291.9214,2322.1775,2322.1775,2322.1775,2322.1775,2352.6318,2352.6318,2352.6318,2352.6318,2352.6318,2383.2847,2383.2847,2383.2847,2383.2847,2414.136,2414.136,2414.136,2414.136,2445.1858,2445.1858,2445.1858,2445.1858,2476.4338,2476.4338,2476.4338,2476.4338,2507.8801,2507.8801,2507.8801,2507.8801,2507.8801,2539.5251,2539.5251,2539.5251,2539.5251,2539.5251,2539.5251,2571.3684
2968.9626,2968.9626,2934.7388,2934.7388,2934.7388,2900.713,2900.713,2900.713,2866.8857,2866.8857,2866.8857,2833.2568,2833.2568,2833.2568,2833.2568,2799.8264,2799.8264,2799.8264,2766.5942,2766.5942,2766.5942,2766.5942,2733.5605,2733.5605,2733.5605,2733.5605,2733.5605,2733.5605,2733.5605,2733.5605,2733.5605,2733.5605,2733.5605,2733.5605,2733.5605,2700.7253,2700.7253,2700.7253,2700.7253,2700.7253,2668.0886,2668.0886,2635.6501,2603.41,2571.3684,2539.5251,2507.8801,2445.1858,2414.136,2352.6318,2322.1775,2291.9214,2261.8638,2261.8638,2261.8638,2261.8638,2322.1775,2322.1775,2352.6318,2383.2847,2383.2847,2414.136,2414.136,2445.1858,2476.4338,2507.8801,2539.5251,2539.5251,2571.3684,2571.3684,2571.3684,2603.41,2603.41,2603.41,2603.41,2635.6501,2635.6501,2635.6501,2635.6501,2635.6501,2635.6501,2603.41,2603.41,2603.41,2603.41,2571.3684,2571.3684,2571.3684,2571.3684,2603.41,2603.41,2603.41,2603.41,2603.41,2603.41,2603.41,2603.41,2603.41,2603.41,2603.41,2635.6501,2635.6501,2635.6501,2635.6501,2635.6501,2635.6501,2635.6501,2635.6501,2635.6501,2635.6501,2635.6501,2635.6501,2635.6501,2635.6501,2603.41,2603.41,2603.41,2603.41,2603.41,2603.41,2603.41,2603.41,2603.41,2603.41,2603.41,2603.41,2603.41,2603.41,2603.41,2603.41,2603.41,2603.41,2603.41,2603.41,2571.3684,2571.3684,2571.3684,2571.3684,2571.3684,2571.3684,2539.5251,2539.5251,2539.5251,2539.5251,2507.8801,2507.8801,2507.8801,2507.8801,2476.4338,2476.4338,2476.4338,2445.1858,2445.1858,2445.1858,2445.1858,2414.136,2414.136,2414.136,2383.2847,2383.2847,2383.2847,2352.6318,2352.6318,2352.6318,2322.1775,2322.1775,2322.1775,2322.1775,2291.9214,2291.9214,2291.9214,2291.9214,2291.9214,2291.9214,2291.9214,2261.8638,2261.8638,2261.8638,2261.8638,2261.8638,2261.8638,2261.8638,2261.8638,2261.8638,2261.8638,2261.8638,2261.8638,2291.9214,2291.9214,2291.9214,2291.9214,2291.9214,2291.9214,2291.9214,2291.9214,2291.9214,2322.1775,2322.1775,2322.1775,2322.1775,2322.1775,2322.1775,2322.1775,2322.1775,2352.6318,2352.6318,2352.6318,2352.6318,2352.6318,2352.6318,2352.6318,2352.6318,2352.6318,2352.6318,2352.6318,2352.6318,2352.6318,2352.6318,2352.6318,2352.6318,2352.6318,2352.6318,2352.6318,2352.6318,2352.6318,2352.6318,2352.6318,2352.6318,2352.6318,2352.6318,2352.6318,2352.6318,2352.6318,2352.6318,2352.6318,2352.6318,2352.6318,2352.6318,2352.6318,2322.1775,2322.1775,2322.1775,2322.1775,2322.1775,2322.1775,2322.1775,2322.1775,2322.1775,2291.9214,2291.9214,2291.9214,2291.9214,2291.9214,2291.9214,2291.9214,2291.9214,2291.9214,2291.9214,2291.9214,2291.9214,2291.9214,2291.9214,2291.9214,2291.9214,2291.9214,2291.9214,2291.9214,2291.9214,2291.9214,2291.9214,2291.9214,2291.9214,2291.9214,2291.9214,2261.8638,2291.9214,2261.8638,2261.8638,2261.8638,2261.8638,2261.8638,2261.8638,2261.8638,2261.8638,2261.8638,2261.8638,2291.9214,2291.9214,2291.9214,2291.9214,2291.9214,2291.9214,2291.9214,2291.9214,2291.9214,2291.9214,2322.1775,2322.1775,2322.1775,2322.1775,2322.1775,2352.6318,2352.6318,2352.6318,2352.6318,2352.6318,2383.2847,2383.2847,2383.2847,2383.2847,2383.2847,2383.2847,2383.2847,2414.136,2414.136,2414.136,2414.136,2414.136,2445.1858,2445.1858,2445.1858,2445.1858,2445.1858,2476.4338,2476.4338,2476.4338,2476.4338,2476.4338,2476.4338,2476.4338,2507.8801,2507.8801,2507.8801,2507.8801,2507.8801,2507.8801,2507.8801,2507.8801,2507.8801,2507.8801,2507.8801,2539.5251,2539.5251,2539.5251,2539.5251,2539.5251,2539.5251,2539.5251,2539.5251
3038.006,3038.006,3038.006,3038.006,3038.006,3038.006,3038.006,3038.006,3003.3853,3003.3853,3003.3853,3003.3853,3003.3853,3003.3853,3003.3853,3003.3853,2968.9626,2968.9626,2968.9626,2968.9626,2968.9626,2968.9626,2968.9626,2934.7388,2934.7388,2934.7388,2934.7388,2934.7388,2934.7388,2934.7388,2934.7388,2900.713,2900.713,2900.713,2900.713,2900.713,2900.713,2900.713,2900.713,2900.713,2900.713,2900.713,2866.8857,2866.8857,2866.8857,2866.8857,2866.8857,2866.8857,2866.8857,2833.2568,2833.2568,2833.2568,2833.2568,2833.2568,2833.2568,2799.8264,2799.8264,2799.8264,2799.8264,2799.8264,2799.8264,2766.5942,2766.5942,2766.5942,2766.5942,2766.5942,2766.5942,2766.5942,2766.5942,2766.5942,2766.5942,2766.5942,2766.5942,2766.5942,2766.5942,2766.5942,2766.5942,2766.5942,2766.5942,2766.5942,2766.5942,2766.5942,2766.5942,2766.5942,2766.5942,2766.5942,2766.5942,2766.5942,2799.8264,2799.8264,2799.8264,2799.8264,2799.8264,2799.8264,2799.8264,2799.8264,2799.8264,2799.8264,2799.8264,2833.2568,2833.2568,2833.2568,2833.2568,2833.2568,2833.2568,2799.8264,2799.8264,2799.8264,2799.8264,2799.8264,2799.8264,2799.8264,2799.8264,2799.8264,2799.8264,2799.8264,2766.5942,2766.5942,2766.5942,2766.5942,2766.5942,2766.5942,2766.5942,2766.5942,2766.5942,2766.5942,2766.5942,2766.5942,2733.5605,2733.5605,2733.5605,2733.5605,2733.5605,2733.5605,2733.5605,2733.5605,2733.5605,2700.7253,2700.7253,2700.7253,2700.7253,2700.7253,2668.0886,2668.0886,2668.0886,2635.6501,2635.6501,2635.6501,2603.41,2603.41,2603.41,2571.3684,2571.3684,2571.3684,2571.3684,2539.5251,2539.5251,2539.5251,2539.5251,2539.5251,2539.5251,2539.5251,2539.5251,2539.5251,2539.5251,2539.5251,2539.5251,2539.5251,2539.5251,2539.5251,2539.5251,2539.5251,2539.5251,2539.5251,2539.5251,2539.5251,2539.5251,2539.5251,2539.5251,2539.5251,2539.5251,2539.5251,2539.5251,2539.5251,2539.5251,2539.5251,2507.8801,2507.8801,2507.8801,2507.8801,2507.8801,2507.8801,2507.8801,2507.8801,2507.8801,2507.8801,2507.8801,2507.8801,2507.8801,2507.8801,2507.8801,2507.8801,2507.8801,2507.8801,2507.8801,2507.8801,2507.8801,2507.8801,2507.8801,2507.8801,2507.8801,2507.8801,2507.8801,2507.8801,2507.8801,2507.8801,2507.8801,2507.8801,2507.8801,2507.8801,2507.8801,2507.8801,2507.8801,2507.8801,2507.8801,2507.8801,2507.8801,2507.8801,2507.8801,2507.8801,2507.8801,2507.8801,2507.8801,2507.8801,2507.8801,2507.8801,2507.8801,2507.8801,2507.8801,2507.8801,2507.8801,2507.8801,2507.8801,2507.8801,2507.8801,2476.4338,2476.4338,2476.4338,2476.4338,2476.4338,2476.4338,2476.4338,2445.1858,2445.1858,2445.1858,2445.1858,2445.1858,2445.1858,2445.1858,2414.136,2414.136,2414.136,2414.136,2414.136,2414.136,2414.136,2414.136,2414.136,2414.136,2414.136,2414.136,2414.136,2414.136,2383.2847,2383.2847,2383.2847,2383.2847,2383.2847,2383.2847,2414.136,2414.136,2414.136,2414.136,2414.136,2414.136,2414.136,2414.136,2414.136,2414.136,2414.136,2414.136,2414.136,2414.136,2414.136,2414.136,2445.1858,2445.1858,2445.1858,2445.1858,2445.1858,2445.1858,2445.1858,2476.4338,2476.4338,2476.4338,2476.4338,2476.4338,2476.4338,2476.4338,2476.4338,2507.8801,2507.8801,2507.8801,2507.8801,2507.8801,2507.8801,2507.8801,2507.8801,2507.8801,2507.8801,2507.8801,2507.8801,2539.5251,2539.5251,2539.5251,2539.5251,2539.5251,2539.5251,2539.5251,2539.5251,2539.5251,2539.5251,2539.5251,2539.5251,2539.5251,2539.5251,2539.5251,2539.5251,2539.5251,2539.5251,2539.5251,2571.3684,2571.3684,2571.3684,2571.3684,2571.3684,2571.3684,2571.3684,2571.3684
3107.843,3107.843,3107.843,3107.843,3107.843,3107.843,3107.843,3107.843,3107.843,3107.843,3107.843,3107.843,3107.843,3107.843,3107.843,3107.843,3107.843,3107.843,3107.843,3107.843,3107.843,3107.843,3107.843,3107.843,3107.843,3107.843,3107.843,3107.843,3107.843,3107.843,3107.843,3072.8254,3072.8254,3072.8254,3072.8254,3072.8254,3072.8254,3072.8254,3072.8254,3072.8254,3072.8254,3072.8254,3038.006,3038.006,3038.006,3038.006,3038.006,3038.006,3038.006,3038.006,3003.3853,3003.3853,3003.3853,3003.3853,3003.3853,3003.3853,2968.9626,2968.9626,2968.9626,2968.9626,2968.9626,2968.9626,2934.7388,2934.7388,2934.7388,2934.7388,2934.7388,2934.7388,2934.7388,2934.7388,2934.7388,2900.713,2900.713,2900.713,2900.713,2900.713,2900.713,2900.713,2900.713,2900.713,2900.713,2900.713,2900.713,2900.713,2900.713,2900.713,2900.713,2900.713,2900.713,2900.713,2900.713,2900.713,2900.713,2900.713,2900.713,2900.713,2900.713,2900.713,2900.713,2900.713,2900.713,2900.713,2900.713,2900.713,2900.713,2900.713,2900.713,2866.8857,2866.8857,2866.8857,2866.8857,2866.8857,2866.8857,2866.8857,2866.8857,2866.8857,2866.8857,2866.8857,2866.8857,2866.8857,2866.8857,2833.2568,2833.2568,2833.2568,2833.2568,2833.2568,2833.2568,2833.2568,2833.2568,2799.8264,2799.8264,2799.8264,2799.8264,2799.8264,2799.8264,2799.8264,2799.8264,2766.5942,2766.5942,2766.5942,2766.5942,2766.5942,2766.5942,2766.5942,2766.5942,2766.5942,2733.5605,2733.5605,2733.5605,2733.5605,2733.5605,2733.5605,2733.5605,2733.5605,2733.5605,2700.7253,2700.7253,2700.7253,2700.7253,2700.7253,2700.7253,2700.7253,2700.7253,2700.7253,2700.7253,2700.7253,2668.0886,2668.0886,2668.0886,2668.0886,2668.0886,2668.0886,2668.0886,2668.0886,2668.0886,2668.0886,2668.0886,2668.0886,2668.0886,2668.0886,2668.0886,2668.0886,2668.0886,2635.6501,2635.6501,2635.6501,2635.6501,2635.6501,2635.6501,2635.6501,2635.6501,2635.6501,2635.6501,2635.6501,2635.6501,2635.6501,2635.6501,2635.6501,2635.6501,2635.6501,2635.6501,2603.41,2603.41,2603.41,2603.41,2603.41,2603.41,2603.41,2603.41,2603.41,2603.41,2603.41,2603.41,2603.41,2603.41,2603.41,2603.41,2603.41,2603.41,2603.41,2603.41,2603.41,2603.41,2603.41,2603.41,2603.41,2603.41,2603.41,2603.41,2603.41,2603.41,2603.41,2603.41,2603.41,2603.41,2603.41,2603.41,2603.41,2603.41,2603.41,2603.41,2603.41,2603.41,2603.41,2603.41,2571.3684,2571.3684,2571.3684,2571.3684,2571.3684,2571.3684,2571.3684,2571.3684,2571.3684,2571.3684,2571.3684,2571.3684,2571.3684,2571.3684,2571.3684,2571.3684,2571.3684,2571.3684,2571.3684,2571.3684,2571.3684,2539.5251,2539.5251,2539.5251,2539.5251,2539.5251,2539.5251,2539.5251,2539.5251,2539.5251,2539.5251,2539.5251,2539.5251,2539.5251,2539.5251,2539.5251,2539.5251,2539.5251,2539.5251,2539.5251,2539.5251,2539.5251,2539.5251,2539.5251,2539.5251,2539.5251,2539.5251,2539.5251,2539.5251,2539.5251,2539.5251,2539.5251,2539.5251,2539.5251,2539.5251,2539.5251,2539.5251,2539.5251,2539.5251,2539.5251,2539.5251,2539.5251,2539.5251,2539.5251,2539.5251,2539.5251,2539.5251,2539.5251,2539.5251,2539.5251,2539.5251,2539.5251,2539.5251,2571.3684,2571.3684,2571.3684,2571.3684,2571.3684,2571.3684,2571.3684,2571.3684,2571.3684,2571.3684,2571.3684,2571.3684,2571.3684,2571.3684,2571.3684,2571.3684,2603.41,2603.41,2603.41,2603.41,2603.41,2603.41,2603.41,2603.41,2603.41,2603.41,2603.41,2603.41,2603.41,2603.41,2603.41
